# This PCD file was generated using the MATLAB® pcwrite function
# from Computer Vision Toolbox®.
# .PCD v.7 - Point Cloud Data file format
VERSION .7
FIELDS x y z
SIZE 4 4 4
TYPE F F F
COUNT 1 1 1
WIDTH 1591
HEIGHT 1
VIEWPOINT 0 0 0 1 0 0 0
POINTS 1591
DATA ascii
-30.791376 7.150435 -2.812692
-31.028648 7.212016 -2.836648
-31.266581 7.273768 -2.858931
-31.507965 7.336415 -2.882302
-31.750015 7.399236 -2.903964
-32.006828 7.465889 -2.937615
-32.292728 7.540090 -2.996695
-32.525574 7.600522 -3.002087
-32.767529 7.663318 -3.013961
-33.053070 7.737426 -3.064453
-33.316513 7.805799 -3.091437
-33.577797 7.873611 -3.113854
-33.825283 7.937842 -3.121139
-34.114098 8.012801 -3.163581
-34.430099 8.094813 -3.227506
-34.697289 8.164159 -3.244678
-34.991653 8.240558 -3.283291
-35.289837 8.317947 -3.322310
-35.579987 8.393250 -3.351402
-35.850090 8.463352 -3.360460
-36.171619 8.546801 -3.410802
-36.458141 8.621163 -3.428358
-36.787506 8.706646 -3.479045
-37.078606 8.782197 -3.494700
-37.391628 8.863437 -3.525637
-37.732861 8.951999 -3.576513
-38.029335 9.028944 -3.587865
-38.317307 9.103684 -3.589679
-38.707279 9.204896 -3.669715
-39.067703 9.298439 -3.722512
-39.382793 9.380216 -3.736442
-39.748264 9.475068 -3.786299
-40.133453 9.575038 -3.847615
-40.510422 9.672875 -3.898852
-40.891590 9.771802 -3.949525
-41.226688 9.858772 -3.962204
-18.152319 3.689452 -1.507876
-18.281767 3.721745 -1.515344
-18.679153 3.820881 -1.547514
-19.101954 3.926357 -1.614918
-19.233618 3.959203 -1.617128
-20.092424 4.173450 -1.724807
-20.216286 4.204350 -1.704377
-20.623112 4.305841 -1.696909
-20.969419 4.392234 -1.808709
-21.425695 4.506062 -1.859035
-21.579336 4.544390 -1.875086
-21.741966 4.584961 -1.903550
-21.883558 4.620284 -1.897744
-22.044928 4.660541 -1.920958
-22.684109 4.819997 -1.987395
-23.183369 4.944548 -2.048747
-23.353035 4.986875 -2.070344
-23.514021 5.027036 -2.077967
-23.689245 5.070749 -2.103887
-23.851078 5.111121 -2.109457
-24.027298 5.155083 -2.133191
-24.197004 5.197420 -2.146248
-24.374243 5.241635 -2.167751
-24.551998 5.285980 -2.188115
-24.727877 5.329856 -2.204185
-24.892220 5.370855 -2.203427
-25.088316 5.419775 -2.242337
-25.268084 5.464622 -2.258105
-25.443453 5.508371 -2.266500
-25.636442 5.556516 -2.295453
-25.797937 5.596805 -2.283012
-25.982029 5.642730 -2.297251
-26.169106 5.689400 -2.313355
-26.354179 5.735570 -2.325183
-26.564939 5.788149 -2.366219
-26.756151 5.835850 -2.381576
-26.950422 5.884315 -2.398695
-27.147783 5.933551 -2.417535
-27.345690 5.982923 -2.435056
-27.559647 6.036299 -2.469163
-27.753510 6.084661 -2.478028
-27.960896 6.136398 -2.500413
-28.181990 6.191555 -2.536139
-28.382711 6.241629 -2.546844
-28.602468 6.296452 -2.576679
-28.817577 6.350114 -2.599178
-29.030619 6.403262 -2.617301
-29.238873 6.455215 -2.628197
-29.474609 6.514024 -2.666453
-29.684015 6.566265 -2.674404
-29.918411 6.624740 -2.706611
-30.156256 6.684074 -2.740013
-30.356394 6.734003 -2.732152
-30.601030 6.795033 -2.768010
-30.854725 6.858322 -2.810540
-31.078651 6.914185 -2.820558
-31.336632 6.978543 -2.862366
-31.564590 7.035412 -2.871904
-31.832520 7.102252 -2.918398
-32.081524 7.164372 -2.943769
-32.331226 7.226665 -2.967374
-32.573063 7.286995 -2.981055
-32.824089 7.349620 -3.001141
-33.113136 7.421728 -3.054395
-33.359856 7.483277 -3.065380
-33.630348 7.550757 -3.095922
-33.907421 7.619878 -3.129804
-34.199886 7.692840 -3.174850
-34.475674 7.761641 -3.201997
-34.787506 7.839433 -3.258463
-35.050171 7.904960 -3.268448
-35.334187 7.975813 -3.294631
-35.648708 8.054277 -3.344446
-35.922413 8.122558 -3.356105
-36.250683 8.204452 -3.411568
-36.582981 8.287351 -3.467084
-36.843918 8.352447 -3.459690
-37.162884 8.432018 -3.497991
-37.449326 8.503477 -3.506516
-37.769958 8.583466 -3.540178
-38.100632 8.665958 -3.578823
-38.410748 8.743323 -3.597839
-38.780128 8.835473 -3.660800
-39.088852 8.912490 -3.672509
-39.466484 9.006698 -3.734871
-39.829716 9.097314 -3.782358
-40.178368 9.184291 -3.815167
-40.549839 9.276962 -3.861877
-40.969448 9.381642 -3.940991
-41.321068 9.469361 -3.965418
-18.594463 3.605947 -1.560930
-18.723364 3.636746 -1.562641
-18.978155 3.697626 -1.556918
-19.128502 3.733549 -1.594988
-19.273706 3.768244 -1.621683
-19.413630 3.801677 -1.637082
-19.555855 3.835660 -1.655140
-20.278904 4.008424 -1.743214
-20.713816 4.112340 -1.779685
-20.857458 4.146662 -1.786745
-21.326138 4.258647 -1.860061
-21.627476 4.330649 -1.882983
-21.769053 4.364476 -1.878081
-21.932493 4.403529 -1.905619
-22.089930 4.441146 -1.922191
-22.249989 4.479391 -1.941110
-22.408302 4.517218 -1.955748
-22.567041 4.555146 -1.969417
-23.224310 4.712193 -2.040310
-23.398922 4.753914 -2.068420
-23.567186 4.794119 -2.085738
-23.722031 4.831117 -2.082711
-23.905115 4.874863 -2.117208
-24.077106 4.915958 -2.134542
-24.242514 4.955480 -2.141241
-24.431997 5.000755 -2.178639
-24.595932 5.039925 -2.180008
-24.786570 5.085476 -2.215033
-24.956169 5.125999 -2.220532
-25.140697 5.170090 -2.243750
-25.318464 5.212565 -2.256410
-25.508938 5.258077 -2.283474
-25.707384 5.305493 -2.318579
-25.879265 5.346562 -2.318414
-26.073900 5.393067 -2.344841
-26.249121 5.434935 -2.345471
-26.414660 5.474488 -2.332776
-26.618376 5.523163 -2.364679
-26.822737 5.571993 -2.395210
-27.009872 5.616707 -2.403238
-27.210289 5.664594 -2.425084
-27.406120 5.711386 -2.439598
-27.636158 5.766350 -2.491610
-27.825373 5.811561 -2.494460
-28.043789 5.863749 -2.528641
-28.239243 5.910450 -2.534786
-28.458929 5.962942 -2.566074
-28.671331 6.013692 -2.587077
-28.876331 6.062675 -2.597898
-29.076488 6.110500 -2.601542
-29.322842 6.169363 -2.652967
-29.532219 6.219391 -2.662371
-29.766544 6.275380 -2.696142
-30.007050 6.332846 -2.733982
-30.223661 6.384603 -2.744568
-30.451817 6.439118 -2.764989
-30.680595 6.493782 -2.783828
-30.901661 6.546603 -2.792671
-31.159492 6.608209 -2.836281
-31.381771 6.661319 -2.841925
-31.635483 6.721941 -2.876466
-31.889961 6.782745 -2.909199
-32.162197 6.847793 -2.956560
-32.389786 6.902173 -2.958308
-32.666447 6.968277 -3.004631
-32.909573 7.026369 -3.016525
-33.190731 7.093548 -3.061662
-33.464100 7.158866 -3.096720
-33.723759 7.220909 -3.116484
-33.992840 7.285202 -3.142339
-34.286060 7.355264 -3.187352
-34.550816 7.418524 -3.203967
-34.848663 7.489691 -3.247399
-35.135578 7.558246 -3.278245
-35.414375 7.624861 -3.299237
-35.708805 7.695211 -3.331060
-35.998066 7.764327 -3.355602
-36.336124 7.845102 -3.418730
-36.636112 7.916780 -3.446406
-36.933872 7.987926 -3.469352
-37.235432 8.059980 -3.492610
-37.513405 8.126398 -3.493722
-37.871414 8.211941 -3.557199
-38.178429 8.285298 -3.576085
-38.526192 8.368392 -3.624527
-38.841007 8.443613 -3.643548
-39.181370 8.524939 -3.679594
-39.547508 8.612423 -3.732324
-39.892891 8.694948 -3.765502
-40.267330 8.784415 -3.817475
-40.677357 8.882386 -3.892586
-41.035145 8.967875 -3.924541
-41.390697 9.052831 -3.951438
-18.619926 3.430464 -1.547174
-18.754585 3.461313 -1.559493
-20.150892 3.781191 -1.695392
-20.601498 3.884419 -1.761971
-20.751232 3.918722 -1.780101
-20.888988 3.950280 -1.776989
-21.354343 4.056888 -1.843672
-21.506140 4.091663 -1.857310
-21.968239 4.197525 -1.899409
-22.134714 4.235662 -1.929268
-22.295153 4.272417 -1.948170
-23.095049 4.455664 -2.014815
-23.262657 4.494061 -2.034289
-23.430744 4.532568 -2.052712
-23.606228 4.572769 -2.079765
-23.779940 4.612564 -2.102483
-23.947172 4.650875 -2.114488
-24.117180 4.689822 -2.128643
-24.290001 4.729414 -2.144916
-24.470419 4.770745 -2.169618
-24.648994 4.811655 -2.189996
-24.811279 4.848832 -2.187170
-24.998028 4.891614 -2.214759
-25.199924 4.937867 -2.259911
-25.375708 4.978136 -2.269403
-25.566650 5.021879 -2.296427
-25.740910 5.061800 -2.300519
-25.925488 5.104084 -2.315855
-26.120537 5.148768 -2.342299
-26.296125 5.188993 -2.342941
-26.497290 5.235078 -2.372999
-26.711748 5.284208 -2.416924
-26.891323 5.325346 -2.416967
-27.091747 5.371262 -2.440013
-27.254189 5.408475 -2.416616
-27.447828 5.452836 -2.428174
-27.675718 5.505043 -2.477253
-27.888765 5.553849 -2.506918
-28.068384 5.594998 -2.496649
-28.282566 5.644064 -2.523569
-28.513271 5.696917 -2.566657
-28.704865 5.740808 -2.564265
-28.931587 5.792747 -2.598489
-29.137548 5.839931 -2.607941
-29.365591 5.892173 -2.639124
-29.586199 5.942712 -2.660099
-29.818304 5.995884 -2.691024
-30.051109 6.049217 -2.720335
-30.251663 6.095162 -2.713942
-30.491213 6.150040 -2.745816
-30.728714 6.204449 -2.773193
-30.972466 6.260290 -2.804518
-31.222530 6.317576 -2.839710
-31.459332 6.371825 -2.859238
-31.716486 6.430736 -2.896475
-31.960287 6.486588 -2.918113
-32.238834 6.550400 -2.970924
-32.466976 6.602665 -2.972610
-32.718533 6.660294 -2.994446
-32.990891 6.722687 -3.033412
-33.240982 6.779981 -3.048899
-33.523586 6.844722 -3.092058
-33.789608 6.905664 -3.117179
-34.079720 6.972126 -3.161592
-34.364864 7.037449 -3.198606
-34.630241 7.098244 -3.215174
-34.911060 7.162577 -3.242897
-35.219334 7.233199 -3.291955
-35.489872 7.295176 -3.305137
-35.773014 7.360041 -3.326656
-36.056892 7.425073 -3.346117
-36.374584 7.497853 -3.391495
-36.690205 7.570158 -3.431980
-36.988552 7.638506 -3.455013
-37.315037 7.713300 -3.498385
-37.618053 7.782718 -3.519397
-37.924892 7.853011 -3.540650
-38.287815 7.936152 -3.603960
-38.602535 8.008251 -3.625324
-38.933506 8.084073 -3.656526
-39.280872 8.163651 -3.697351
-39.647881 8.247728 -3.749991
-40.006588 8.329904 -3.792651
-40.344341 8.407279 -3.815930
-40.736389 8.497092 -3.876875
-41.098045 8.579944 -3.911288
-41.473301 8.665911 -3.952297
-41.840034 8.749925 -3.983465
-18.246830 3.165496 -1.502798
-18.516794 3.224659 -1.534777
-19.338999 3.404849 -1.619292
-20.643295 3.690691 -1.772967
-20.783108 3.721332 -1.774069
-20.935625 3.754757 -1.794725
-21.231493 3.819598 -1.816421
-21.387381 3.853761 -1.837737
-21.535215 3.886160 -1.844691
-21.694105 3.920981 -1.867500
-22.321215 4.058415 -1.929164
-22.471302 4.091307 -1.930668
-22.661795 4.133055 -1.990435
-23.147348 4.239466 -2.031960
-23.315380 4.276291 -2.051387
-23.463223 4.308691 -2.040644
-23.648262 4.349244 -2.080647
-23.808397 4.384337 -2.084081
-23.982914 4.422584 -2.105767
-24.162649 4.461974 -2.132739
-24.335852 4.499932 -2.149011
-24.502390 4.536429 -2.154667
-24.695631 4.578779 -2.194082
-24.867899 4.616532 -2.203859
-25.047852 4.655970 -2.221977
-25.235605 4.697117 -2.248335
-25.416597 4.736782 -2.264115
-25.600540 4.777094 -2.281845
-25.789940 4.818602 -2.304584
-25.977409 4.859686 -2.323004
-26.177893 4.903624 -2.355581
-26.358931 4.943299 -2.362315
-26.553024 4.985835 -2.383156
-26.755287 5.030162 -2.411845
-26.950520 5.072948 -2.430099
-27.141167 5.114729 -2.441033
-27.345177 5.159439 -2.465757
-27.544611 5.203146 -2.483130
-27.741987 5.246401 -2.496200
-27.947720 5.291489 -2.516888
-28.161911 5.338429 -2.545079
-28.371469 5.384356 -2.565921
-28.586922 5.431573 -2.591227
-28.787016 5.475424 -2.597524
-28.979551 5.517619 -2.593757
-29.196682 5.565205 -2.614843
-29.411722 5.612331 -2.631567
-29.649046 5.664342 -2.669851
-29.868046 5.712337 -2.686422
-30.109539 5.765261 -2.724325
-30.321533 5.811721 -2.729291
-30.564413 5.864949 -2.763940
-30.791389 5.914692 -2.779989
-31.035681 5.968229 -2.811298
-31.258307 6.017019 -2.818565
-31.515194 6.073317 -2.857655
-31.758768 6.126698 -2.881086
-32.011517 6.182088 -2.911067
-32.273540 6.239512 -2.947481
-32.524925 6.294604 -2.971116
-32.782742 6.351105 -2.998402
-33.032639 6.405872 -3.015751
-33.312107 6.467118 -3.058232
-33.604053 6.531100 -3.109391
-33.876537 6.590816 -3.139769
-34.146870 6.650060 -3.165540
-34.417938 6.709466 -3.189366
-34.707428 6.772909 -3.226990
-34.980007 6.832646 -3.246838
-35.274082 6.897094 -3.282907
-35.589886 6.966304 -3.334915
-35.846813 7.022610 -3.333161
-36.143330 7.087594 -3.362837
-36.452713 7.155396 -3.400516
-36.744823 7.219414 -3.420725
-37.065010 7.289584 -3.461460
-37.380016 7.358619 -3.494804
-37.665302 7.421141 -3.500913
-38.000328 7.494563 -3.544575
-38.330154 7.566846 -3.580798
-38.688698 7.645422 -3.636594
-39.011112 7.716081 -3.660450
-39.359222 7.792370 -3.701275
-39.714539 7.870240 -3.744289
-40.080235 7.950384 -3.791789
-40.459530 8.033507 -3.846024
-40.843067 8.117562 -3.899719
-41.155003 8.185925 -3.896405
-41.591236 8.281527 -3.981927
-41.939781 8.357911 -3.999004
-18.151377 2.953515 -1.501470
-18.552301 3.037119 -1.541613
-18.685390 3.064872 -1.551146
-20.082436 3.356196 -1.691418
-20.237120 3.388452 -1.723368
-20.527760 3.449059 -1.750279
-20.665461 3.477773 -1.748821
-20.817841 3.509549 -1.770394
-20.958221 3.538822 -1.770702
-21.269262 3.603683 -1.816139
-21.730732 3.699913 -1.863866
-21.894758 3.734118 -1.892382
-22.050613 3.766618 -1.906587
-22.213451 3.800574 -1.929797
-22.695978 3.901195 -1.980272
-23.019119 3.968579 -2.007913
-23.180189 4.002167 -2.018624
-23.346245 4.036794 -2.034847
-23.515055 4.071996 -2.053274
-23.698238 4.110195 -2.090007
-23.868080 4.145612 -2.106270
-24.033701 4.180149 -2.115063
-24.209154 4.216735 -2.135609
-24.366154 4.249475 -2.129580
-24.563965 4.290724 -2.176550
-24.733747 4.326128 -2.184264
-24.911171 4.363126 -2.200373
-25.101200 4.402753 -2.231065
-25.262585 4.436406 -2.222955
-25.451221 4.475742 -2.248177
-25.650284 4.517252 -2.284609
-25.842585 4.557353 -2.310432
-26.035469 4.597575 -2.334997
-26.213907 4.634784 -2.339852
-26.407860 4.675229 -2.361960
-26.597317 4.714736 -2.376694
-26.792360 4.755408 -2.396279
-26.982841 4.795129 -2.408525
-27.191797 4.838703 -2.440667
-27.398836 4.881876 -2.468398
-27.585741 4.920851 -2.470777
-27.804359 4.966439 -2.507764
-28.007965 5.008897 -2.525424
-28.214764 5.052021 -2.544698
-28.424778 5.095815 -2.565538
-28.640699 5.140841 -2.590841
-28.841228 5.182657 -2.597135
-29.074430 5.231286 -2.637061
-29.278746 5.273891 -2.643461
-29.502497 5.320550 -2.668728
-29.713299 5.364508 -2.678081
-29.943741 5.412562 -2.706072
-30.147415 5.455034 -2.703950
-30.359787 5.499320 -2.708997
-30.605881 5.550637 -2.746557
-30.861090 5.603856 -2.790836
-31.086411 5.650842 -2.802469
-31.320705 5.699699 -2.820933
-31.575346 5.752799 -2.857227
-31.830763 5.806061 -2.891716
-32.095470 5.861260 -2.932656
-32.335342 5.911280 -2.947043
-32.587276 5.963815 -2.970674
-32.828396 6.014096 -2.981668
-33.130741 6.077143 -3.047728
-33.381966 6.129531 -3.063156
-33.642559 6.183872 -3.084846
-33.944752 6.246888 -3.141972
-34.245010 6.309501 -3.194226
-34.496185 6.361877 -3.199445
-34.783390 6.421768 -3.234387
-35.068466 6.481215 -3.264637
-35.360287 6.542068 -3.298012
-35.637985 6.599976 -3.316340
-35.913395 6.657407 -3.330102
-36.231617 6.723765 -3.377688
-36.508503 6.781504 -3.387298
-36.834557 6.849495 -3.435409
-37.109848 6.906902 -3.438300
-37.419334 6.971439 -3.466754
-37.766422 7.043817 -3.522806
-38.068447 7.106797 -3.539104
-38.392796 7.174433 -3.570425
-38.724205 7.243542 -3.604232
-39.072044 7.316076 -3.647743
-39.420860 7.388815 -3.688632
-39.833195 7.474798 -3.775034
-40.184128 7.547977 -3.810383
-40.526554 7.619384 -3.835953
-40.891945 7.695578 -3.875512
-41.239307 7.768013 -3.898194
-41.628826 7.849239 -3.948644
-18.579901 2.862872 -1.542018
-19.399897 3.025851 -1.615970
-19.539036 3.053505 -1.627912
-19.976307 3.140415 -1.690073
-20.114950 3.167972 -1.695304
-20.553028 3.255042 -1.740472
-20.699146 3.284084 -1.752685
-20.853897 3.314841 -1.777652
-21.289404 3.401401 -1.796367
-21.450087 3.433337 -1.824468
-21.609152 3.464952 -1.848234
-21.755800 3.494099 -1.850964
-21.928743 3.528473 -1.892865
-22.087076 3.559942 -1.910397
-22.232687 3.588883 -1.907076
-22.398439 3.621827 -1.932666
-23.062044 3.753722 -2.018223
-23.223467 3.785806 -2.028907
-23.394464 3.819793 -2.051592
-23.561361 3.852964 -2.066740
-23.712467 3.882998 -2.058277
-23.898832 3.920038 -2.097152
-24.067078 3.953478 -2.109185
-24.238117 3.987473 -2.123370
-24.411985 4.022030 -2.139672
-24.588718 4.057157 -2.158057
-24.787567 4.096679 -2.203788
-24.953335 4.129626 -2.204079
-25.141312 4.166988 -2.231623
-25.320105 4.202524 -2.245430
-25.516560 4.241570 -2.279938
-25.686506 4.275348 -2.278963
-25.876665 4.313143 -2.301714
-26.062391 4.350057 -2.317060
-26.258654 4.389066 -2.343513
-26.440380 4.425185 -2.350292
-26.635214 4.463909 -2.371179
-26.848444 4.506289 -2.412083
-27.047037 4.545761 -2.433369
-27.238476 4.583810 -2.444291
-27.435575 4.622985 -2.459987
-27.640997 4.663814 -2.483375
-27.860083 4.707358 -2.520320
-28.058884 4.746871 -2.531998
-28.258184 4.786483 -2.542367
-28.479193 4.830410 -2.575021
-28.682247 4.870768 -2.585608
-28.888485 4.911759 -2.597781
-29.124823 4.958732 -2.640627
-29.343040 5.002104 -2.661523
-29.545591 5.042362 -2.663611
-29.781300 5.089211 -2.698888
-29.998579 5.132396 -2.712472
-30.216419 5.175693 -2.724594
-30.456905 5.223491 -2.757968
-30.692575 5.270331 -2.784009
-30.934498 5.318415 -2.814053
-31.135157 5.358297 -2.800362
-31.361460 5.403276 -2.810473
-31.616535 5.453973 -2.846821
-31.872396 5.504827 -2.881369
-32.129025 5.555833 -2.914106
-32.374989 5.604720 -2.934069
-32.644558 5.658298 -2.974133
-32.891914 5.707462 -2.990551
-33.186192 5.765951 -3.048473
-33.446609 5.817710 -3.071976
-33.707737 5.869611 -3.093634
-33.992973 5.926303 -3.134746
-34.287899 5.984921 -3.181746
-34.548344 6.036686 -3.194948
-34.830154 6.092698 -3.224677
-35.094921 6.145321 -3.236708
-35.419994 6.209931 -3.298810
-35.707211 6.267017 -3.324898
-35.983173 6.321867 -3.338624
-36.283947 6.381646 -3.370834
-36.615822 6.447608 -3.426286
-36.906197 6.505322 -3.443830
-37.236935 6.571058 -3.491998
-37.510521 6.625435 -3.490133
-37.793884 6.681755 -3.493783
-38.151817 6.752896 -3.554821
-38.486130 6.819342 -3.593455
-38.808960 6.883506 -3.619801
-39.138847 6.949073 -3.648627
-39.510193 7.022880 -3.706471
-39.838783 7.088189 -3.727797
-40.205902 7.161156 -3.775399
-40.577217 7.234957 -3.822599
-40.946404 7.308335 -3.864614
-41.297550 7.378127 -3.889725
-41.694141 7.456952 -3.944912
-42.095062 7.536636 -3.999383
-19.020115 2.755368 -1.591321
-19.152840 2.780376 -1.595080
-19.295362 2.807230 -1.615598
-21.637917 3.248612 -1.843630
-21.799902 3.279133 -1.869811
-21.958061 3.308933 -1.888333
-22.107935 3.337172 -1.892596
-22.271326 3.367958 -1.915878
-22.430788 3.398004 -1.931546
-23.084267 3.521132 -2.000877
-23.255045 3.553309 -2.024664
-23.414860 3.583421 -2.031157
-23.588911 3.616216 -2.056101
-23.765821 3.649549 -2.083180
-23.938612 3.682106 -2.102708
-24.102489 3.712984 -2.108337
-24.288036 3.747945 -2.141719
-24.462309 3.780781 -2.157987
-24.634665 3.813256 -2.169991
-24.809870 3.846268 -2.184081
-24.997639 3.881647 -2.212834
-25.178703 3.915763 -2.230950
-25.355379 3.949052 -2.241656
-25.544802 3.984743 -2.266847
-25.742222 4.021941 -2.300141
-25.915417 4.054574 -2.301162
-26.113989 4.091989 -2.331971
-26.300625 4.127154 -2.346098
-26.495335 4.163841 -2.368218
-26.688070 4.200156 -2.386017
-26.881336 4.236572 -2.402563
-27.082825 4.274536 -2.426944
-27.272017 4.310183 -2.434902
-27.484989 4.350311 -2.468707
-27.680414 4.387133 -2.480112
-27.889423 4.426515 -2.505164
-28.088528 4.464030 -2.516931
-28.301353 4.504130 -2.542199
-28.517460 4.544848 -2.568987
-28.731543 4.585186 -2.591383
-28.946232 4.625637 -2.612338
-29.174990 4.668740 -2.646422
-29.385525 4.708408 -2.658625
-29.615623 4.751763 -2.689653
-29.840958 4.794220 -2.713345
-30.053219 4.834215 -2.721174
-30.274258 4.875863 -2.736148
-30.506939 4.919704 -2.760987
-30.729166 4.961576 -2.772909
-30.974281 5.007761 -2.805858
-31.217335 5.053556 -2.834292
-31.444204 5.096303 -2.844289
-31.708384 5.146079 -2.888861
-31.947866 5.191202 -2.906662
-32.190826 5.236981 -2.925559
-32.417255 5.279644 -2.926322
-32.698795 5.332691 -2.977379
-32.961060 5.382107 -3.007397
-33.212482 5.429480 -3.024748
-33.499477 5.483555 -3.072614
-33.743568 5.529547 -3.078252
-34.026340 5.582826 -3.116823
-34.324680 5.639039 -3.166607
-34.594414 5.689862 -3.187841
-34.876720 5.743054 -3.217650
-35.171726 5.798639 -3.255872
-35.476566 5.856077 -3.299742
-35.731323 5.904078 -3.297444
-36.073933 5.968632 -3.367927
-36.393520 6.028848 -3.415381
-36.653416 6.077817 -3.409585
-36.956440 6.134912 -3.437394
-37.257217 6.191585 -3.460472
-37.546509 6.246093 -3.471344
-37.879547 6.308844 -3.514992
-38.179585 6.365376 -3.528918
-38.570164 6.438969 -3.612081
-38.887463 6.498754 -3.633478
-39.233620 6.563977 -3.674459
-39.583866 6.629970 -3.715266
-39.931946 6.695555 -3.751043
-40.293552 6.763688 -3.793785
-40.640358 6.829033 -3.821902
-41.013409 6.899323 -3.866350
-41.377941 6.968008 -3.900917
-41.762566 7.040478 -3.946756
-42.157837 7.114955 -3.996635
-18.488821 2.476776 -1.516173
-18.616760 2.499637 -1.515882
-19.178083 2.599938 -1.595485
-19.305580 2.622721 -1.588017
-19.465961 2.651379 -1.639199
-20.024996 2.751272 -1.678612
-20.758410 2.882324 -1.755136
-20.874361 2.903043 -1.715493
-21.206894 2.962462 -1.796860
-21.357172 2.989315 -1.809016
-21.512093 3.016998 -1.827014
-21.669596 3.045141 -1.847445
-22.138281 3.128890 -1.893067
-22.290945 3.156169 -1.899773
-22.463907 3.187076 -1.935331
-22.624094 3.215699 -1.950030
-22.950268 3.273982 -1.983075
-23.120842 3.304462 -2.007904
-23.289660 3.334627 -2.028420
-23.456665 3.364469 -2.044644
-23.626444 3.394807 -2.063078
-23.796701 3.425230 -2.080462
-23.974463 3.456993 -2.106437
-24.143349 3.487171 -2.118472
-24.319777 3.518697 -2.139045
-24.489571 3.549037 -2.148960
-24.676563 3.582450 -2.180038
-24.852114 3.613819 -2.194103
-25.028128 3.645271 -2.207066
-25.214352 3.678547 -2.231490
-25.388882 3.709733 -2.239071
-25.586014 3.744958 -2.273638
-25.776365 3.778972 -2.297587
-25.954830 3.810861 -2.304818
-26.151253 3.845960 -2.332534
-26.343246 3.880266 -2.352814
-26.538319 3.915123 -2.374918
-26.731413 3.949627 -2.392698
-26.912254 3.981941 -2.394016
-27.111483 4.017541 -2.415407
-27.313864 4.053704 -2.438510
-27.511642 4.089045 -2.454262
-27.715168 4.125412 -2.474717
-27.916645 4.161414 -2.490843
-28.131840 4.199867 -2.520512
-28.342398 4.237491 -2.542810
-28.548237 4.274272 -2.557807
-28.770655 4.314015 -2.589065
-28.991076 4.353402 -2.615891
-29.220240 4.394351 -2.649965
-29.431152 4.432038 -2.662163
-29.648043 4.470794 -2.678733
-29.881924 4.512586 -2.711113
-30.102785 4.552051 -2.727558
-30.332506 4.593099 -2.751067
-30.551792 4.632283 -2.761648
-30.788322 4.674548 -2.787719
-31.039516 4.719433 -2.826243
-31.277458 4.761950 -2.848988
-31.513241 4.804082 -2.867302
-31.755312 4.847337 -2.889549
-31.935476 4.879530 -2.849264
-32.989910 5.067945 -2.989106
-33.279430 5.119679 -3.041688
-33.523270 5.163250 -3.049137
-33.805714 5.213719 -3.089692
-34.091961 5.264868 -3.130883
-34.367279 5.314064 -3.159402
-34.664089 5.367100 -3.204419
-34.932091 5.414989 -3.221034
-35.209724 5.464599 -3.243582
-35.500061 5.516479 -3.274537
-35.794216 5.569041 -3.305978
-36.068073 5.617976 -3.317289
-36.406155 5.678387 -3.380362
-36.702805 5.731395 -3.405295
-37.000237 5.784542 -3.428077
-37.319851 5.841653 -3.466323
-37.634228 5.897829 -3.497204
-37.958706 5.955809 -3.533252
-38.253151 6.008423 -3.542135
-38.597916 6.070028 -3.588295
-38.943680 6.131812 -3.631881
-39.293545 6.194328 -3.675317
-39.656937 6.259262 -3.725821
-39.996223 6.319889 -3.754326
-40.352154 6.383489 -3.792275
-40.715378 6.448393 -3.832312
-41.089111 6.515174 -3.876712
-41.438385 6.577586 -3.899473
-41.788509 6.640149 -3.919626
-42.181141 6.710307 -3.967362
-19.616081 2.491494 -1.627110
-19.902756 2.539971 -1.659066
-20.053625 2.565483 -1.685906
-20.492882 2.639762 -1.733643
-21.243984 2.766775 -1.814183
-21.392460 2.791882 -1.822921
-21.543423 2.817410 -1.834156
-21.709799 2.845545 -1.867992
-21.857292 2.870486 -1.870695
-22.015980 2.897321 -1.889224
-22.170736 2.923490 -1.900145
-22.986441 3.061427 -1.993346
-23.152782 3.089556 -2.011617
-23.324175 3.118538 -2.035383
-23.482264 3.145272 -2.038606
-23.640697 3.172063 -2.040881
-23.827457 3.203644 -2.080922
-24.000813 3.232959 -2.100470
-24.169945 3.261559 -2.112527
-24.341888 3.290635 -2.126738
-24.509512 3.318981 -2.133512
-24.708742 3.352671 -2.180516
-24.884575 3.382405 -2.194585
-25.068159 3.413449 -2.217008
-25.254726 3.444998 -2.241406
-25.434490 3.475396 -2.255216
-25.617195 3.506292 -2.271013
-25.807842 3.538530 -2.294977
-25.994068 3.570021 -2.311518
-26.173275 3.600326 -2.317608
-26.373079 3.634113 -2.347176
-26.558300 3.665434 -2.357047
-26.769463 3.701142 -2.396270
-26.953171 3.732207 -2.400624
-27.160473 3.767262 -2.431087
-27.363243 3.801551 -2.454134
-27.564009 3.835501 -2.472846
-27.762714 3.869102 -2.487240
-27.975073 3.905013 -2.515264
-28.182802 3.940140 -2.535925
-28.383156 3.974020 -2.546323
-28.607990 4.012040 -2.581957
-28.817488 4.047466 -2.598441
-29.038298 4.084805 -2.625232
-29.259766 4.122256 -2.650536
-29.479164 4.159357 -2.671443
-29.693716 4.195638 -2.685092
-29.906084 4.231550 -2.694431
-30.140987 4.271272 -2.725280
-30.373833 4.310647 -2.751660
-30.607355 4.350135 -2.776449
-30.847120 4.390680 -2.805295
-31.084787 4.430870 -2.829668
-31.342817 4.474504 -2.872032
-31.573425 4.513500 -2.884667
-31.807451 4.553074 -2.898509
-32.059166 4.595639 -2.927346
-32.271553 4.631555 -2.915876
-32.524548 4.674335 -2.941367
-32.784012 4.718212 -2.970548
-33.018162 4.757807 -2.973462
-33.305172 4.806341 -3.023423
-33.578514 4.852563 -3.057864
-33.849728 4.898426 -3.087680
-34.139366 4.947404 -3.131552
-34.406273 4.992538 -3.152127
-34.679802 5.038793 -3.176086
-34.992764 5.091715 -3.232220
-35.270889 5.138747 -3.254720
-35.561745 5.187931 -3.285629
-35.850395 5.236742 -3.311852
-36.142849 5.286196 -3.338569
-36.454277 5.338860 -3.378524
-36.766609 5.391675 -3.416196
-37.058453 5.441026 -3.433868
-37.351028 5.490501 -3.449436
-37.675064 5.545296 -3.487931
-37.981499 5.597115 -3.509096
-38.332066 5.656396 -3.562703
-38.668148 5.713228 -3.601372
-38.980221 5.766001 -3.617954
-39.333721 5.825778 -3.663916
-39.703926 5.888380 -3.719339
-40.046879 5.946374 -3.750301
-40.412842 6.008259 -3.795465
-40.744965 6.064421 -3.811702
-41.144653 6.132009 -3.875158
-41.532768 6.197640 -3.926157
-41.870770 6.254797 -3.936813
-18.399937 2.093752 -1.506065
-18.526197 2.113775 -1.502946
-18.943558 2.179963 -1.560029
-19.085978 2.202549 -1.582173
-19.225025 2.224600 -1.596489
-19.364433 2.246708 -1.610021
-19.498411 2.267955 -1.612299
-19.935488 2.337270 -1.673587
-20.064781 2.357774 -1.662385
-21.413420 2.571650 -1.813516
-21.575275 2.597318 -1.841607
-21.733355 2.622387 -1.862010
-21.885397 2.646499 -1.871429
-22.046532 2.672053 -1.893299
-22.205952 2.697335 -1.910870
-22.359192 2.721637 -1.917533
-22.521679 2.747405 -1.936520
-23.016438 2.825867 -1.994119
-23.185339 2.852653 -2.015662
-23.340977 2.877335 -2.016627
-23.522324 2.906094 -2.052383
-23.688046 2.932375 -2.064332
-23.851858 2.958354 -2.072048
-24.034861 2.987375 -2.104494
-24.204290 3.014245 -2.116548
-24.374157 3.041183 -2.127559
-24.565973 3.071603 -2.166184
-24.736818 3.098696 -2.175005
-24.903246 3.125090 -2.176448
-25.091919 3.155011 -2.205245
-25.273851 3.183863 -2.223410
-25.468590 3.214746 -2.256077
-25.649128 3.243376 -2.268760
-25.837595 3.273265 -2.289633
-26.039101 3.305221 -2.324789
-26.213638 3.332901 -2.324668
-26.411276 3.364243 -2.351144
-26.606979 3.395279 -2.373270
-26.808352 3.427214 -2.400231
-26.992382 3.456399 -2.404580
-27.192305 3.488104 -2.425946
-27.390209 3.519489 -2.442987
-27.596468 3.552199 -2.467766
-27.792864 3.583344 -2.479196
-28.010801 3.617907 -2.513232
-28.208290 3.649226 -2.522018
-28.419542 3.682727 -2.544328
-28.642071 3.718017 -2.577032
-28.854572 3.751717 -2.596481
-29.073050 3.786365 -2.620370
-29.302982 3.822829 -2.654447
-29.517321 3.856820 -2.669544
-29.729490 3.890468 -2.680324
-29.944931 3.924634 -2.692572
-30.177460 3.961510 -2.720577
-30.388525 3.994982 -2.724167
-30.647341 4.036026 -2.774652
-30.884701 4.073668 -2.800687
-31.128355 4.112309 -2.830729
-31.383997 4.152850 -2.870298
-31.629129 4.191725 -2.896910
-31.877804 4.231161 -2.924605
-32.101513 4.266639 -2.925678
-32.297054 4.297649 -2.897703
-32.570526 4.341018 -2.942480
-32.815987 4.379944 -2.958028
-33.076572 4.421270 -2.985453
-33.367020 4.467331 -3.038076
-33.617489 4.507052 -3.050945
-33.874443 4.547802 -3.067424
-34.129108 4.588188 -3.079443
-34.434692 4.636650 -3.134750
-34.735336 4.684328 -3.182552
-35.030952 4.731209 -3.222920
-35.294537 4.773010 -3.232427
-35.606804 4.822531 -3.281650
-35.877831 4.865512 -3.292405
-36.191868 4.915314 -3.337239
-36.512913 4.966228 -3.384891
-36.792263 5.010529 -3.394557
-37.118149 5.062210 -3.440204
-37.395882 5.106255 -3.443165
-37.726589 5.158701 -3.486721
-38.030437 5.206887 -3.505422
-38.406391 5.266508 -3.578882
-38.749325 5.320893 -3.622405
-39.027645 5.365031 -3.611947
-39.416183 5.426648 -3.684754
-39.733635 5.476991 -3.698914
-40.089691 5.533457 -3.739643
-40.462543 5.592587 -3.789676
-40.849174 5.653901 -3.846421
-41.214634 5.711858 -3.883674
-41.558689 5.766420 -3.901724
-41.945232 5.827721 -3.947606
-18.545214 1.940598 -1.502588
-19.952578 2.150326 -1.666273
-20.381851 2.214298 -1.699382
-20.532436 2.236738 -1.720215
-20.687571 2.259857 -1.747007
-20.812199 2.278429 -1.721717
-21.130781 2.325905 -1.781135
-21.285589 2.348975 -1.800949
-21.434467 2.371161 -1.809726
-21.904915 2.441268 -1.864311
-22.871027 2.585240 -1.967809
-23.039652 2.610369 -1.990394
-23.197369 2.633872 -1.995611
-23.369223 2.659482 -2.019427
-23.548534 2.686204 -2.051922
-23.719147 2.711629 -2.070341
-23.880882 2.735731 -2.074806
-24.057104 2.761992 -2.097593
-24.233850 2.788331 -2.119280
-24.411116 2.814747 -2.139859
-24.576925 2.839457 -2.143411
-24.767185 2.867810 -2.177693
-24.948397 2.894814 -2.198099
-25.113083 2.919356 -2.195297
-25.300135 2.947231 -2.219772
-25.485291 2.974823 -2.239923
-25.690783 3.005446 -2.283855
-25.874609 3.032840 -2.298453
-26.063931 3.061053 -2.318082
-26.246243 3.088222 -2.327240
-26.439119 3.116965 -2.347549
-26.627460 3.145032 -2.360489
-26.831627 3.175457 -2.390544
-27.023592 3.204064 -2.404048
-27.216057 3.232746 -2.416320
-27.427179 3.264208 -2.448486
-27.631153 3.294604 -2.470227
-27.838331 3.325478 -2.493629
-28.038208 3.355264 -2.506708
-28.254486 3.387495 -2.536325
-28.468763 3.419427 -2.561533
-28.678329 3.450656 -2.579416
-28.891150 3.482372 -2.598851
-29.099163 3.513370 -2.611019
-29.321255 3.546467 -2.636385
-29.549442 3.580472 -2.666058
-29.772848 3.613764 -2.688406
-29.994135 3.646740 -2.706369
-30.199453 3.677338 -2.705652
-30.430168 3.711720 -2.729269
-30.675459 3.748273 -2.765524
-30.915920 3.784107 -2.794419
-31.151472 3.819210 -2.816031
-31.404604 3.856932 -2.852854
-31.647179 3.893081 -2.876743
-31.893284 3.929756 -2.901744
-32.120075 3.963553 -2.905676
-33.128162 4.113780 -2.995659
-33.378242 4.151048 -3.010386
-33.652378 4.191900 -3.044896
-33.921444 4.231997 -3.072104
-34.203060 4.273964 -3.108066
-34.500320 4.318262 -3.155269
-34.771744 4.358710 -3.176584
-35.058811 4.401489 -3.209099
-35.352688 4.445283 -3.244780
-35.602287 4.482480 -3.239372
-35.945988 4.533699 -3.312366
-36.218140 4.574255 -3.321088
-36.530460 4.620798 -3.361141
-36.828426 4.665202 -3.386192
-37.167004 4.715657 -3.441994
-37.485115 4.763062 -3.477665
-37.797943 4.809680 -3.506000
-38.130177 4.859191 -3.546997
-38.450932 4.906991 -3.575639
-38.772526 4.954916 -3.601928
-39.079315 5.000634 -3.613616
-39.430759 5.053006 -3.657176
-39.814682 5.110219 -3.722333
-40.123959 5.156309 -3.726802
-40.529003 5.216669 -3.800834
-40.855820 5.265372 -3.812289
-41.240799 5.322742 -3.863923
-41.626877 5.380277 -3.912649
-42.030083 5.440363 -3.970138
-42.376480 5.491984 -3.982744
-18.993805 1.811017 -1.581055
-19.112160 1.827423 -1.557445
-19.548700 1.887935 -1.629627
-19.838034 1.928041 -1.666607
-20.411413 2.007521 -1.713401
-20.570442 2.029565 -1.747916
-20.709480 2.048838 -1.747278
-21.159637 2.111238 -1.791590
-21.316830 2.133027 -1.814761
-22.245632 2.261775 -1.897425
-22.403690 2.283684 -1.910759
-22.898396 2.352259 -1.971398
-23.065008 2.375354 -1.990699
-23.234386 2.398833 -2.012250
-23.399662 2.421743 -2.026249
-23.567694 2.445035 -2.042493
-23.743168 2.469358 -2.067418
-23.912157 2.492783 -2.081575
-24.091021 2.517577 -2.107558
-24.258589 2.540804 -2.116395
-24.436098 2.565410 -2.136988
-24.606934 2.589091 -2.146923
-24.770956 2.611827 -2.146285
-24.971701 2.639654 -2.192104
-25.148796 2.664202 -2.205087
-25.333710 2.689834 -2.226391
-25.529028 2.716908 -2.259046
-25.717546 2.743040 -2.281078
-25.904121 2.768903 -2.298797
-26.076174 2.792752 -2.296744
-26.278816 2.820842 -2.330676
-26.464392 2.846565 -2.341750
-26.665716 2.874473 -2.370036
-26.854864 2.900692 -2.381743
-27.062506 2.929474 -2.413534
-27.257877 2.956556 -2.428805
-27.466766 2.985512 -2.457909
-27.652792 3.011298 -2.458567
-27.865469 3.040779 -2.488006
-28.070890 3.069253 -2.507083
-28.276880 3.097807 -2.524810
-28.491423 3.127546 -2.550069
-28.717302 3.158857 -2.585698
-28.914326 3.186167 -2.587484
-29.136101 3.216909 -2.614332
-29.363964 3.248495 -2.645519
-29.592522 3.280177 -2.675160
-29.799854 3.308917 -2.680134
-30.021427 3.339630 -2.698135
-30.232540 3.368894 -2.703190
-30.471910 3.402075 -2.735384
-30.734320 3.438449 -2.788662
-30.944420 3.467573 -2.786349
-31.197161 3.502607 -2.824899
-31.422441 3.533834 -2.833647
-31.656776 3.566317 -2.849255
-31.923067 3.603230 -2.893835
-32.138710 3.633121 -2.886743
-32.397873 3.669046 -2.919525
-32.643383 3.703077 -2.936789
-32.898220 3.738402 -2.960545
-33.179947 3.777454 -3.006966
-33.412910 3.809747 -3.005430
-33.699158 3.849426 -3.050729
-33.948029 3.883923 -3.059176
-34.250690 3.925878 -3.113854
-34.521709 3.963445 -3.137179
-34.811317 4.003590 -3.174414
-35.101784 4.043853 -3.209572
-35.405098 4.085897 -3.253093
-35.664135 4.121805 -3.255443
-35.969097 4.164077 -3.294757
-36.226391 4.199743 -3.290718
-36.560360 4.246036 -3.348843
-36.867882 4.288664 -3.381598
-37.182388 4.332260 -3.417185
-37.488541 4.374697 -3.442924
-37.832573 4.422386 -3.496496
-38.134247 4.464203 -3.512647
-38.511322 4.516472 -3.586065
-38.802212 4.556795 -3.587674
-39.172039 4.608059 -3.648434
-39.511570 4.655123 -3.682063
-39.858315 4.703188 -3.718026
-40.202835 4.750944 -3.749013
-40.576820 4.802785 -3.798990
-40.948689 4.854332 -3.843776
-41.270470 4.898936 -3.847923
-41.673065 4.954743 -3.908508
-42.083275 5.011605 -3.970708
-42.417278 5.057903 -3.974027
-18.861483 1.612657 -1.548976
-18.987215 1.628878 -1.540201
-19.256319 1.663598 -1.552230
-19.413416 1.683866 -1.597373
-19.839283 1.738810 -1.640324
-19.984623 1.757562 -1.657653
-20.431156 1.815172 -1.718386
-20.576097 1.833872 -1.728902
-20.723452 1.852883 -1.742011
-21.478630 1.950315 -1.815014
-21.623995 1.969069 -1.816200
-21.784775 1.989813 -1.840045
-21.946051 2.010620 -1.862924
-22.101244 2.030643 -1.874827
-22.907925 2.134719 -1.956710
-23.076952 2.156526 -1.979352
-23.246485 2.178399 -2.000958
-23.430338 2.202119 -2.041066
-23.598635 2.223833 -2.057282
-23.762732 2.245004 -2.065999
-23.931917 2.266832 -2.080179
-24.099195 2.288414 -2.090108
-24.283501 2.312192 -2.121459
-24.461246 2.335125 -2.142055
-24.634712 2.357505 -2.155178
-24.803801 2.379320 -2.160879
-24.990278 2.403379 -2.187692
-25.157803 2.424993 -2.188101
-25.364965 2.451720 -2.237761
-25.545753 2.475045 -2.251614
-25.719572 2.497471 -2.254971
-25.913748 2.522523 -2.282133
-26.113543 2.548300 -2.314238
-26.311459 2.573835 -2.341956
-26.499842 2.598140 -2.356089
-26.688725 2.622509 -2.369023
-26.878098 2.646941 -2.380754
-27.080835 2.673098 -2.406491
-27.286770 2.699667 -2.433936
-27.485521 2.725310 -2.450967
-27.695280 2.752372 -2.478744
-27.905674 2.779517 -2.505137
-28.103497 2.805039 -2.515218
-28.312424 2.831995 -2.535911
-28.521940 2.859026 -2.555228
-28.726679 2.885441 -2.567268
-28.950783 2.914354 -2.598531
-29.167467 2.942310 -2.619510
-29.387472 2.970695 -2.641960
-29.599911 2.998103 -2.654231
-29.840319 3.029120 -2.694001
-30.056711 3.057038 -2.706217
-30.265345 3.083956 -2.708396
-30.502247 3.114520 -2.737742
-30.742645 3.145536 -2.768313
-30.978151 3.175920 -2.791573
-31.208689 3.205663 -2.807599
-31.453970 3.237309 -2.836082
-31.714169 3.270880 -2.876834
-31.952370 3.301611 -2.893529
-32.174000 3.330206 -2.892000
-33.202026 3.462839 -2.998680
-33.473259 3.497833 -3.032351
-33.733543 3.531415 -3.053347
-33.991573 3.564705 -3.069846
-34.265053 3.599988 -3.097867
-34.542271 3.635755 -3.126608
-34.823246 3.672005 -3.156020
-35.081051 3.705266 -3.162432
-35.387531 3.744808 -3.208839
-35.688919 3.783692 -3.247823
-35.982113 3.821520 -3.276880
-36.315605 3.864546 -3.337260
-36.616634 3.903384 -3.367041
-36.897060 3.939564 -3.376838
-37.211929 3.980187 -3.412489
-37.518433 4.019732 -3.438294
-37.825741 4.059380 -3.461883
-38.167988 4.103536 -3.510642
-38.533051 4.150635 -3.574207
-38.846127 4.191028 -3.593167
-39.188198 4.235161 -3.631898
-39.509190 4.276574 -3.651051
-39.890957 4.325829 -3.713877
-40.239044 4.370738 -3.747340
-40.632545 4.421507 -3.811738
-40.950718 4.462557 -3.816042
-41.359135 4.515250 -3.884273
-41.752754 4.566033 -3.937639
-42.102421 4.611146 -3.955301
-42.465828 4.658032 -3.979670
-18.872168 1.434690 -1.541565
-18.986738 1.448377 -1.511661
-19.854839 1.552084 -1.639958
-20.002335 1.569704 -1.660748
-20.294590 1.604618 -1.692884
-20.439283 1.621903 -1.704256
-20.586382 1.639476 -1.718236
-20.721506 1.655619 -1.710847
-21.195415 1.712234 -1.792806
-21.336037 1.729033 -1.788921
-21.491838 1.747645 -1.807868
-21.654531 1.767081 -1.835986
-21.806936 1.785288 -1.846351
-21.974960 1.805361 -1.879245
-22.929338 1.919374 -1.959571
-23.094023 1.939048 -1.975644
-23.266033 1.959597 -2.000525
-23.445490 1.981036 -2.034116
-23.620916 2.001993 -2.060089
-23.773548 2.020227 -2.052611
-23.954617 2.041858 -2.082958
-24.129189 2.062713 -2.102521
-24.297134 2.082776 -2.111387
-24.482220 2.104887 -2.141598
-24.655886 2.125634 -2.154718
-24.832422 2.146724 -2.169937
-25.016731 2.168742 -2.193552
-25.201590 2.190826 -2.216003
-25.384537 2.212681 -2.234143
-25.555634 2.233121 -2.235480
-25.751959 2.256575 -2.266970
-25.941418 2.279208 -2.287865
-26.138962 2.302808 -2.316847
-26.316917 2.324067 -2.319855
-26.518126 2.348104 -2.349441
-26.712307 2.371301 -2.368522
-26.909599 2.394871 -2.389411
-27.107454 2.418507 -2.409024
-27.305866 2.442210 -2.427360
-27.512644 2.466913 -2.453471
-27.717424 2.491376 -2.475218
-27.917526 2.515281 -2.489630
-28.115513 2.538934 -2.499767
-28.343222 2.566136 -2.541324
-28.534319 2.588966 -2.539886
-28.755327 2.615368 -2.569675
-28.971624 2.641208 -2.592110
-29.191242 2.667444 -2.616034
-29.408773 2.693431 -2.635578
-29.640570 2.721122 -2.668182
-29.856607 2.746931 -2.681875
-30.064928 2.771818 -2.685505
-30.304199 2.800402 -2.719286
-30.541428 2.828742 -2.748579
-30.779362 2.857167 -2.776253
-31.017988 2.885674 -2.802302
-31.257305 2.914263 -2.826726
-31.497295 2.942934 -2.849509
-31.718039 2.969304 -2.851110
-31.979263 3.000511 -2.890148
-32.186798 3.025304 -2.874794
-32.429253 3.054269 -2.891133
-32.698364 3.086417 -2.930480
-32.953785 3.116931 -2.954291
-33.206993 3.147180 -2.973608
-33.493076 3.181357 -3.020906
-33.756561 3.212834 -3.044637
-34.026661 3.245101 -3.071879
-34.297508 3.277457 -3.097218
-34.572079 3.310258 -3.123302
-34.853367 3.343862 -3.152720
-35.123459 3.376128 -3.169642
-35.430328 3.412788 -3.216001
-35.689827 3.443789 -3.218566
-35.998394 3.480651 -3.260684
-36.344383 3.521984 -3.331427
-36.602993 3.552879 -3.325413
-36.908089 3.589326 -3.355778
-37.260139 3.631384 -3.421908
-37.539268 3.664730 -3.424992
-37.853077 3.702219 -3.453650
-38.205017 3.744262 -3.509915
-38.539322 3.784200 -3.548707
-38.871433 3.823875 -3.582576
-39.204441 3.863657 -3.614005
-39.560394 3.906181 -3.660041
-39.895233 3.946182 -3.686478
-40.275326 3.991589 -3.744164
-40.666100 4.038272 -3.806175
-41.003773 4.078612 -3.824779
-41.355068 4.120579 -3.850363
-41.784348 4.171862 -3.929787
-42.115055 4.211370 -3.933460
-42.527294 4.260617 -3.992800
-19.302485 1.286572 -1.583928
-19.450449 1.302712 -1.611501
-20.311890 1.396675 -1.696845
-21.669250 1.544732 -1.833173
-21.815327 1.560666 -1.833485
-21.994385 1.580197 -1.883149
-22.143448 1.596456 -1.884988
-22.301655 1.613713 -1.899274
-22.464729 1.631501 -1.919257
-22.787786 1.666739 -1.949681
-22.954500 1.684924 -1.970018
-23.110298 1.701918 -1.972959
-23.289377 1.721451 -2.007654
-23.455221 1.739541 -2.021687
-23.626152 1.758186 -2.041214
-23.795235 1.776629 -2.056455
-23.957724 1.794353 -2.060989
-24.139496 1.814180 -2.090275
-24.312338 1.833033 -2.105599
-24.497612 1.853242 -2.135837
-24.681080 1.873254 -2.161717
-24.855433 1.892272 -2.173748
-25.027800 1.911073 -2.181542
-25.217714 1.931789 -2.210344
-25.398388 1.951496 -2.225371
-25.594395 1.972876 -2.258053
-25.771133 1.992154 -2.264512
-25.963303 2.013115 -2.288532
-26.148500 2.033316 -2.302027
-26.349356 2.055225 -2.332880
-26.543224 2.076372 -2.353197
-26.737648 2.097579 -2.372275
-26.927479 2.118285 -2.383998
-27.130701 2.140452 -2.409722
-27.334538 2.162686 -2.434127
-27.544191 2.185554 -2.463238
-27.744005 2.207349 -2.478938
-27.931185 2.227766 -2.478366
-28.150530 2.251692 -2.512429
-28.354614 2.273953 -2.527190
-28.575274 2.298022 -2.558391
-28.793934 2.321872 -2.585166
-28.983559 2.342556 -2.578170
-29.219641 2.368307 -2.619715
-29.434713 2.391767 -2.636338
-29.647625 2.414991 -2.648635
-29.877571 2.440073 -2.676869
-30.102680 2.464627 -2.697793
-30.333961 2.489854 -2.722938
-30.574265 2.516066 -2.755076
-30.801306 2.540831 -2.771368
-31.034567 2.566274 -2.791791
-31.271290 2.592096 -2.813451
-31.511499 2.618297 -2.836304
-31.766613 2.646124 -2.871474
-31.999628 2.671540 -2.882639
-32.221729 2.695767 -2.881162
-32.484676 2.724448 -2.916759
-32.728149 2.751006 -2.931329
-32.989689 2.779533 -2.960604
-33.243217 2.807188 -2.979905
-33.506207 2.835874 -3.005557
-33.769928 2.864640 -3.029375
-34.060955 2.896384 -3.075440
-34.332138 2.925964 -3.100775
-34.604057 2.955624 -3.124202
-34.849808 2.982430 -3.121971
-35.141075 3.014201 -3.157430
-35.421146 3.044750 -3.180361
-35.756371 3.081315 -3.248076
-36.047215 3.113039 -3.274548
-36.347977 3.145846 -3.306656
-36.619011 3.175410 -3.311018
-36.958138 3.212401 -3.369464
-37.282948 3.247830 -3.412753
-37.559269 3.277970 -3.413382
-37.891994 3.314263 -3.457143
-38.222576 3.350322 -3.495970
-38.557205 3.386822 -3.534850
-38.911575 3.425476 -3.586054
-39.232410 3.460472 -3.607683
-39.585587 3.498995 -3.651332
-39.933437 3.536938 -3.687521
-40.291748 3.576021 -3.728362
-40.663788 3.616602 -3.776117
-41.049667 3.658693 -3.830611
-41.394978 3.696359 -3.851445
-41.786160 3.739027 -3.902660
-42.184891 3.782520 -3.955601
-42.558865 3.823312 -3.986944
-18.359585 1.008457 -1.502686
-19.041681 1.076317 -1.568426
-19.173809 1.089462 -1.569469
-19.319582 1.103964 -1.594353
-19.458096 1.117744 -1.604406
-19.741987 1.145988 -1.632647
-19.881525 1.159870 -1.640361
-20.467232 1.218140 -1.704671
-20.616697 1.233010 -1.722082
-21.061289 1.277241 -1.758916
-21.218672 1.292898 -1.783060
-21.374418 1.308393 -1.802888
-21.528477 1.323720 -1.818425
-21.997499 1.370381 -1.866310
-22.151030 1.385656 -1.874868
-22.315981 1.402066 -1.899161
-22.804848 1.450702 -1.952862
-22.962669 1.466403 -1.960039
-23.129992 1.483049 -1.979394
-23.297794 1.499743 -1.997735
-23.473001 1.517174 -2.024824
-23.637138 1.533504 -2.034599
-23.813379 1.551037 -2.059569
-23.987808 1.568391 -2.080223
-24.155643 1.585088 -2.090152
-24.335800 1.603011 -2.115092
-24.514114 1.620751 -2.135712
-24.671268 1.636386 -2.126564
-24.869865 1.656143 -2.170447
-25.057007 1.674762 -2.197230
-25.227581 1.691731 -2.200759
-25.418245 1.710700 -2.228382
-25.616938 1.730467 -2.264185
-25.786407 1.747327 -2.261261
-25.978754 1.766463 -2.285289
-26.169155 1.785406 -2.304991
-26.365162 1.804906 -2.329659
-26.546486 1.822945 -2.334607
-26.748695 1.843062 -2.362944
-26.948957 1.862985 -2.386913
-27.152395 1.883225 -2.412624
-27.346056 1.902492 -2.424893
-27.545435 1.922327 -2.441962
-27.747980 1.942478 -2.460750
-27.964272 1.963996 -2.493205
-28.160049 1.983473 -2.500348
-28.382925 2.005646 -2.535964
-28.585114 2.025761 -2.546398
-28.790495 2.046194 -2.558472
-29.026115 2.069635 -2.601525
-29.240820 2.090995 -2.619565
-29.450653 2.111871 -2.630359
-29.682922 2.134979 -2.662992
-29.904905 2.157063 -2.682494
-30.127497 2.179208 -2.700513
-30.353466 2.201689 -2.719914
-30.596786 2.225896 -2.754919
-30.821251 2.248227 -2.768371
-31.063169 2.272295 -2.797289
-31.302979 2.296153 -2.821738
-31.543461 2.320078 -2.844552
-31.793165 2.344920 -2.874100
-32.003521 2.365848 -2.863020
-32.245884 2.389959 -2.880995
-32.488880 2.414135 -2.897314
-32.729618 2.438085 -2.909232
-33.008778 2.465858 -2.954976
-33.280067 2.492847 -2.990595
-33.537498 2.518458 -3.010789
-33.813290 2.545895 -3.045339
-34.078056 2.572237 -3.067234
-34.355408 2.599829 -3.097932
-34.612682 2.625425 -3.108114
-34.897503 2.653761 -3.140256
-35.177132 2.681580 -3.165123
-35.448463 2.708574 -3.180177
-35.756790 2.739248 -3.224507
-36.053890 2.768806 -3.256265
-36.367069 2.799963 -3.298752
-36.641399 2.827255 -3.305712
-36.974697 2.860414 -3.359093
-37.287457 2.891529 -3.392309
-37.604172 2.923038 -3.425776
-37.915558 2.954017 -3.451937
-38.237095 2.986006 -3.483318
-38.565754 3.018703 -3.517311
-38.923534 3.054297 -3.571072
-39.250916 3.086867 -3.597679
-39.604404 3.122035 -3.641384
-39.965225 3.157932 -3.687313
-40.311180 3.192349 -3.718522
-40.667603 3.227809 -3.754361
-41.040970 3.264954 -3.799458
-41.418587 3.302522 -3.844131
-41.816563 3.342115 -3.900091
-42.205994 3.380858 -3.946030
-42.606209 3.420674 -3.996014
-18.766985 0.867779 -1.525368
-19.323530 0.917752 -1.583937
-19.752066 0.956231 -1.632756
-20.338898 1.008923 -1.703750
-20.915531 1.060700 -1.733960
-21.078854 1.075365 -1.769237
-21.234314 1.089324 -1.789963
-21.379602 1.102370 -1.792857
-21.540178 1.116788 -1.818545
-21.681868 1.129511 -1.812996
-21.843317 1.144007 -1.836851
-22.011812 1.159137 -1.869778
-22.813200 1.231094 -1.946395
-22.982487 1.246295 -1.970029
-23.140865 1.260516 -1.976245
-23.313404 1.276008 -2.001131
-23.481848 1.291133 -2.018442
-23.643780 1.305673 -2.024992
-23.820137 1.321509 -2.049993
-24.011168 1.338662 -2.093261
-24.174473 1.353325 -2.096718
-24.342905 1.368449 -2.105611
-24.523739 1.384686 -2.129459
-24.709936 1.401405 -2.158545
-24.891880 1.417742 -2.180109
-25.062166 1.433032 -2.184716
-25.250004 1.449898 -2.210357
-25.440882 1.467038 -2.237950
-25.619957 1.483117 -2.248673
-25.814445 1.500580 -2.277006
-26.004528 1.517648 -2.297871
-26.180037 1.533407 -2.298943
-26.371126 1.550566 -2.317458
-26.570391 1.568458 -2.343984
-26.762583 1.585715 -2.360029
-26.965588 1.603943 -2.387064
-27.158865 1.621298 -2.400609
-27.363047 1.639632 -2.425047
-27.559996 1.657316 -2.439097
-27.773216 1.676461 -2.469930
-27.976547 1.694719 -2.487370
-28.193695 1.714217 -2.518413
-28.403526 1.733058 -2.539098
-28.608587 1.751470 -2.552482
-28.822254 1.770656 -2.573383
-29.025709 1.788924 -2.581124
-29.270397 1.810895 -2.631433
-29.472286 1.829023 -2.633438
-29.682848 1.847930 -2.642846
-29.932489 1.870345 -2.691334
-30.152554 1.890105 -2.706444
-30.375973 1.910166 -2.722952
-30.611151 1.931283 -2.749385
-30.852617 1.952965 -2.779908
-31.089174 1.974206 -2.803121
-31.317909 1.994744 -2.816282
-31.555748 2.016100 -2.836319
-31.794228 2.037513 -2.854738
-32.019016 2.057698 -2.857643
-32.270210 2.080252 -2.883946
-32.539444 2.104428 -2.925038
-32.760204 2.124250 -2.917638
-33.036747 2.149081 -2.960620
-33.287830 2.171626 -2.977204
-33.557182 2.195812 -3.008278
-33.830261 2.220332 -3.040151
-34.107090 2.245188 -3.072780
-34.357971 2.267716 -3.079478
-34.642250 2.293241 -3.113613
-34.894413 2.315883 -3.116714
-35.186211 2.342084 -3.152199
-35.460754 2.366736 -3.169934
-35.778400 2.395258 -3.222113
-36.090961 2.423323 -3.266810
-36.389210 2.450103 -3.296388
-36.691338 2.477232 -3.326386
-37.000443 2.504987 -3.359304
-37.298061 2.531711 -3.379864
-37.630489 2.561560 -3.425990
-37.939049 2.589266 -3.449648
-38.282692 2.620122 -3.498478
-38.589821 2.647699 -3.515054
-38.929081 2.678162 -3.554051
-39.281883 2.709841 -3.600353
-39.607258 2.739056 -3.622123
-39.981010 2.772616 -3.677854
-40.314507 2.802561 -3.699488
-40.687134 2.836020 -3.747412
-41.051205 2.868710 -3.785414
-41.438740 2.903507 -3.837272
-41.817707 2.937536 -3.879163
-42.213867 2.973107 -3.929909
-18.774817 0.675263 -1.525751
-18.913990 0.686322 -1.542437
-19.055428 0.697561 -1.561873
