# This PCD file was generated using the MATLAB® pcwrite function
# from Computer Vision Toolbox®.
# .PCD v.7 - Point Cloud Data file format
VERSION .7
FIELDS x y z
SIZE 4 4 4
TYPE F F F
COUNT 1 1 1
WIDTH 1726
HEIGHT 1
VIEWPOINT 0 0 0 1 0 0 0
POINTS 1726
DATA ascii
0.642765 0.828281 0.170168
0.736961 0.830337 0.142506
0.840732 0.832602 0.154124
0.936885 0.834700 0.135103
1.032192 0.836780 0.112610
1.132954 0.838980 0.113928
1.227476 0.841042 0.088388
1.328996 0.843258 0.094510
1.429527 0.845452 0.097191
1.524171 0.847518 0.072935
1.623782 0.849692 0.072593
1.721727 0.851829 0.064863
1.816560 0.853899 0.041870
1.914535 0.856037 0.035002
2.011009 0.858143 0.020706
2.111859 0.860344 0.030443
2.206907 0.862418 0.009142
2.302064 0.864495 -0.011748
2.401351 0.866662 -0.008563
2.495965 0.868727 -0.032557
2.595169 0.870892 -0.028498
2.689937 0.872960 -0.051656
2.791456 0.875175 -0.030907
2.883380 0.877182 -0.073003
2.980711 0.879306 -0.079078
3.080781 0.881490 -0.064916
3.176941 0.883589 -0.078048
3.273672 0.885700 -0.086797
3.371419 0.887833 -0.087183
3.466712 0.889913 -0.106990
3.565367 0.892066 -0.098574
3.659440 0.894119 -0.129470
3.755875 0.896223 -0.140079
3.852356 0.898329 -0.150265
3.950850 0.900479 -0.140128
4.045447 0.902543 -0.169375
4.143848 0.904691 -0.158378
4.239722 0.906783 -0.174846
4.335377 0.908871 -0.194881
4.432092 0.910982 -0.202537
4.528260 0.913080 -0.217751
4.624528 0.915181 -0.232550
4.721659 0.917301 -0.234954
4.818545 0.919416 -0.240924
4.915017 0.921521 -0.254460
-0.059597 0.812741 0.225036
0.039630 0.815436 0.213622
0.136716 0.818074 0.194950
0.235938 0.820770 0.184431
0.333082 0.823409 0.166636
0.436335 0.826214 0.172490
0.534456 0.828879 0.159459
0.637468 0.831678 0.166263
0.735512 0.834341 0.154136
0.834502 0.837031 0.146338
0.930676 0.839643 0.127312
1.027825 0.842283 0.112607
1.129466 0.845044 0.117828
1.227462 0.847706 0.107909
1.326308 0.850392 0.102336
1.422585 0.853007 0.085479
1.521391 0.855691 0.080786
1.618533 0.858330 0.068706
1.715692 0.860970 0.057054
1.813641 0.863631 0.049760
1.907789 0.866189 0.023264
2.008736 0.868931 0.032553
2.103025 0.871493 0.006894
2.202392 0.874192 0.009204
2.297538 0.876777 -0.011680
2.396142 0.879456 -0.012434
2.490762 0.882026 -0.036424
2.588063 0.884670 -0.044211
2.685363 0.887313 -0.051567
2.783861 0.889989 -0.050582
2.879950 0.892599 -0.064987
2.978367 0.895273 -0.063135
3.072860 0.897840 -0.088576
3.172305 0.900542 -0.077932
3.267993 0.903141 -0.094611
3.364269 0.905757 -0.106902
3.461078 0.908387 -0.114800
3.557441 0.911005 -0.126248
3.654297 0.913636 -0.133302
3.749882 0.916233 -0.151861
3.849279 0.918933 -0.134197
3.944541 0.921521 -0.155892
4.040702 0.924133 -0.169211
4.138731 0.926796 -0.162194
4.235635 0.929429 -0.166698
4.332216 0.932053 -0.174765
4.427605 0.934644 -0.198364
4.524323 0.937272 -0.205591
4.621342 0.939907 -0.208408
4.717593 0.942522 -0.222775
4.813466 0.945127 -0.244710
4.909504 0.947736 -0.266228
-0.063796 0.812425 0.225070
0.037573 0.815696 0.221358
0.134610 0.818827 0.202690
0.234828 0.822060 0.196040
0.332934 0.825226 0.182119
0.432060 0.828424 0.172509
0.530165 0.831590 0.159475
0.631208 0.834850 0.158519
0.727350 0.837952 0.138614
0.826391 0.841148 0.130795
0.926324 0.844373 0.127316
1.029825 0.847712 0.139875
1.120622 0.850642 0.098332
1.223941 0.853976 0.111809
1.321896 0.857136 0.102329
1.419841 0.860297 0.093291
1.515300 0.863377 0.072947
1.616498 0.866642 0.080443
1.712011 0.869724 0.060959
1.807607 0.872809 0.041889
1.907822 0.876042 0.046807
1.999785 0.879010 0.008939
2.100658 0.882264 0.018667
2.199254 0.885446 0.017045
2.294350 0.888514 -0.003836
2.390224 0.891608 -0.020360
2.486822 0.894725 -0.032521
2.584727 0.897884 -0.036358
2.683214 0.901061 -0.035807
2.777420 0.904101 -0.062497
2.877633 0.907335 -0.049213
2.972566 0.910398 -0.071110
3.067628 0.913465 -0.092598
3.164947 0.916605 -0.097817
3.264312 0.919811 -0.086740
3.360040 0.922900 -0.102998
3.456336 0.926008 -0.114871
3.554535 0.929176 -0.110431
3.653982 0.932385 -0.093627
3.745952 0.935352 -0.143984
3.842423 0.938465 -0.154171
3.939725 0.941605 -0.155977
4.036247 0.944719 -0.165317
4.131732 0.947800 -0.186187
4.229750 0.950963 -0.178749
4.327016 0.954101 -0.178850
4.421794 0.957160 -0.210427
4.519128 0.960300 -0.209684
4.616150 0.963431 -0.212503
4.712149 0.966528 -0.230865
4.808753 0.969645 -0.240827
4.905197 0.972757 -0.254361
-0.070783 0.811952 0.217401
0.027364 0.815694 0.202123
0.127649 0.819517 0.195000
0.231014 0.823458 0.199920
0.328055 0.827157 0.182136
0.427160 0.830935 0.172524
0.527233 0.834750 0.167237
0.628221 0.838600 0.166287
0.723349 0.842226 0.142505
0.826126 0.846144 0.150237
0.917617 0.849632 0.111756
1.018436 0.853476 0.112610
1.119149 0.857315 0.113928
1.215375 0.860983 0.096193
1.318529 0.864916 0.110137
1.416419 0.868648 0.101103
1.511823 0.872285 0.080763
1.608930 0.875986 0.068677
1.704474 0.879629 0.049179
1.802422 0.883363 0.041872
1.899592 0.887067 0.031075
1.999730 0.890885 0.036433
2.096133 0.894560 0.022577
2.194691 0.898317 0.020957
2.289750 0.901941 0.000075
2.386257 0.905620 -0.012504
2.483454 0.909325 -0.020715
2.579379 0.912982 -0.036393
2.677228 0.916712 -0.039796
2.770229 0.920258 -0.074400
2.871641 0.924123 -0.053212
2.966005 0.927721 -0.079074
3.063828 0.931450 -0.080759
3.160010 0.935117 -0.093902
3.258308 0.938864 -0.090758
3.353039 0.942475 -0.114960
3.450327 0.946184 -0.118898
3.548524 0.949928 -0.114462
3.643956 0.953566 -0.133439
3.741219 0.957273 -0.136095
3.838868 0.960996 -0.134344
3.934096 0.964626 -0.156044
4.030974 0.968320 -0.161405
4.126780 0.971972 -0.178292
4.225426 0.975732 -0.162881
4.320659 0.979363 -0.186899
4.416678 0.983023 -0.202529
4.514246 0.986743 -0.197797
4.610108 0.990397 -0.216578
4.705849 0.994047 -0.238936
4.802943 0.997748 -0.240915
4.899806 1.001441 -0.246464
4.995682 1.005096 -0.271561
-0.067651 0.811877 0.244299
0.022810 0.815838 0.202092
0.120949 0.820135 0.187259
0.223280 0.824616 0.188314
0.320349 0.828866 0.170519
0.424536 0.833428 0.180246
0.523558 0.837763 0.171096
0.621575 0.842055 0.158517
0.716716 0.846221 0.134731
0.817617 0.850639 0.134682
0.919341 0.855093 0.138988
1.017291 0.859381 0.128189
1.114344 0.863631 0.113929
1.210549 0.867843 0.096197
1.309388 0.872171 0.090612
1.406500 0.876423 0.077649
1.505281 0.880748 0.072949
1.601593 0.884965 0.056941
1.701115 0.889323 0.057038
1.799007 0.893609 0.049742
1.893854 0.897762 0.027172
1.991770 0.902049 0.020735
2.088220 0.906272 0.006869
2.188936 0.910682 0.017051
2.283991 0.914844 -0.003829
2.380493 0.919069 -0.016411
2.475074 0.923210 -0.040406
2.574877 0.927580 -0.032399
2.672685 0.931863 -0.035798
2.766249 0.935959 -0.066443
2.865268 0.940295 -0.061074
2.964744 0.944650 -0.051301
3.058579 0.948759 -0.080701
3.156868 0.953062 -0.077983
3.249927 0.957137 -0.114495
3.349713 0.961506 -0.099018
3.445470 0.965699 -0.114858
3.544552 0.970037 -0.102471
3.638575 0.974154 -0.133364
3.735387 0.978393 -0.139995
3.832620 0.982650 -0.142220
3.928647 0.986855 -0.155962
4.025504 0.991095 -0.161319
4.121288 0.995289 -0.178203
4.217863 0.999518 -0.186702
4.315122 1.003776 -0.186805
4.411426 1.007993 -0.198445
4.506929 1.012175 -0.221635
4.603147 1.016388 -0.236429
4.700225 1.020638 -0.238831
4.797059 1.024878 -0.244801
4.893478 1.029100 -0.258334
4.990799 1.033361 -0.255471
-0.029078 0.813624 0.398217
0.018651 0.816017 0.205981
0.116744 0.820934 0.191151
0.215894 0.825905 0.180621
0.317077 0.830977 0.178276
0.415136 0.835893 0.164788
0.518171 0.841058 0.171115
0.617135 0.846019 0.162411
0.712229 0.850786 0.138624
0.811198 0.855748 0.130803
0.912910 0.860847 0.135104
1.010847 0.865756 0.124294
1.110564 0.870755 0.121725
1.207580 0.875619 0.107900
1.304623 0.880484 0.094509
1.401688 0.885350 0.081548
1.500423 0.890299 0.076848
1.597495 0.895166 0.064756
1.697744 0.900191 0.068781
1.793236 0.904978 0.049716
1.890321 0.909845 0.038925
1.988157 0.914750 0.032497
2.082362 0.919472 0.006833
2.181641 0.924449 0.009137
2.280136 0.929387 0.007949
2.376557 0.934220 -0.004626
2.469753 0.938892 -0.036509
2.568237 0.943830 -0.036403
2.666652 0.948763 -0.035855
2.763192 0.953603 -0.046730
2.859761 0.958444 -0.057182
2.958056 0.963372 -0.055330
3.052430 0.968103 -0.080772
3.150156 0.973002 -0.082024
3.245777 0.977795 -0.098708
3.342482 0.982643 -0.107039
3.440165 0.987540 -0.107000
3.536869 0.992388 -0.114478
3.634033 0.997259 -0.117555
3.729462 1.002043 -0.136113
3.825006 1.006832 -0.154255
3.920663 1.011628 -0.171985
4.017184 1.016466 -0.181335
4.114819 1.021361 -0.178312
4.213072 1.026286 -0.166887
4.308919 1.031091 -0.182934
4.404563 1.035886 -0.202551
4.501502 1.040746 -0.205797
4.597076 1.045537 -0.228573
4.694091 1.050400 -0.230974
4.790861 1.055251 -0.236945
4.887217 1.060082 -0.250482
4.983665 1.064917 -0.263597
0.014693 0.816179 0.209816
0.115918 0.821884 0.206560
0.216013 0.827526 0.199912
0.312970 0.832990 0.182129
0.409970 0.838457 0.164777
0.509992 0.844094 0.159483
0.607021 0.849562 0.143012
0.711763 0.855465 0.158034
0.805902 0.860771 0.130799
0.902026 0.866189 0.111754
1.006393 0.872071 0.128190
1.102494 0.877487 0.110029
1.198655 0.882906 0.092293
1.298306 0.888522 0.090607
1.397038 0.894087 0.085464
1.497370 0.899741 0.088596
1.591940 0.905071 0.064765
1.687419 0.910452 0.045265
1.782983 0.915838 0.026182
1.883915 0.921527 0.035012
1.980259 0.926956 0.020718
2.079531 0.932551 0.022587
2.178005 0.938101 0.020968
2.272982 0.943454 0.000087
2.368737 0.948851 -0.016436
2.465215 0.954288 -0.028592
2.562998 0.959799 -0.032428
2.658274 0.965169 -0.051636
2.755451 0.970645 -0.058567
2.852624 0.976122 -0.065065
2.950355 0.981630 -0.067177
3.046945 0.987074 -0.076777
3.142495 0.992459 -0.093881
3.240194 0.997965 -0.094705
3.335359 1.003328 -0.114937
3.434483 1.008915 -0.102991
3.529751 1.014284 -0.122382
3.626917 1.019760 -0.125462
3.723205 1.025187 -0.136069
3.819129 1.030593 -0.150231
3.915130 1.036004 -0.163977
4.013463 1.041546 -0.153412
4.108078 1.046878 -0.182245
4.205974 1.052395 -0.174807
4.303767 1.057907 -0.166931
4.397165 1.063171 -0.214462
4.495568 1.068716 -0.197763
4.589447 1.074007 -0.244478
4.687771 1.079549 -0.226923
4.783071 1.084920 -0.256849
4.880579 1.090415 -0.250419
4.977198 1.095861 -0.259538
0.010796 0.816333 0.213587
0.105609 0.822274 0.187204
0.207836 0.828679 0.188265
0.303784 0.834691 0.166611
0.404854 0.841024 0.164728
0.504838 0.847289 0.159441
0.603784 0.853489 0.150735
0.708451 0.860048 0.165773
0.802523 0.865942 0.138555
0.897655 0.871903 0.115634
1.000148 0.878325 0.124290
1.098013 0.884457 0.113932
1.195871 0.890589 0.104011
1.294577 0.896774 0.098438
1.392398 0.902904 0.089400
1.491853 0.909135 0.088630
1.585584 0.915009 0.060889
1.688144 0.921435 0.076681
1.781994 0.927316 0.049785
1.879012 0.933395 0.039002
1.975304 0.939428 0.024721
2.074521 0.945645 0.026599
2.171535 0.951724 0.017116
2.268554 0.957803 0.008063
2.362233 0.963673 -0.020277
2.459345 0.969758 -0.028484
2.555823 0.975804 -0.040211
2.653568 0.981928 -0.043609
2.749475 0.987938 -0.058436
2.847195 0.994061 -0.060970
2.944872 1.000181 -0.063072
3.039764 1.006127 -0.084549
3.139034 1.012348 -0.073898
3.235581 1.018397 -0.082637
3.330660 1.024355 -0.102854
3.425860 1.030320 -0.122663
3.522566 1.036380 -0.130139
3.617952 1.042357 -0.149117
3.717729 1.048609 -0.127910
3.812352 1.054538 -0.153997
3.910693 1.060700 -0.143854
4.006274 1.066689 -0.161148
4.102680 1.072730 -0.170059
4.198442 1.078730 -0.186520
4.295281 1.084798 -0.190603
4.391812 1.090847 -0.198252
4.488376 1.096897 -0.205476
4.584428 1.102916 -0.220261
4.680578 1.108941 -0.234630
4.776824 1.114971 -0.248578
4.873385 1.121022 -0.258113
4.970810 1.127126 -0.251249
0.010132 0.816770 0.232827
0.103754 0.823338 0.202613
0.202737 0.830281 0.192111
0.303748 0.837366 0.189788
0.398615 0.844021 0.164715
0.496565 0.850892 0.151682
0.596472 0.857899 0.146848
0.694397 0.864768 0.134704
0.797971 0.872034 0.146325
0.896719 0.878960 0.138977
0.992708 0.885694 0.120394
1.094103 0.892806 0.125629
1.191862 0.899663 0.115725
1.288755 0.906460 0.102349
1.386512 0.913317 0.093320
1.480965 0.919942 0.069067
1.577957 0.926746 0.056982
1.676542 0.933661 0.053167
1.776618 0.940681 0.057648
1.872046 0.947375 0.039019
1.966817 0.954023 0.016877
2.065300 0.960931 0.014818
2.163722 0.967835 0.013200
2.260025 0.974590 0.000205
2.357704 0.981441 -0.004478
2.454048 0.988199 -0.016617
2.549158 0.994871 -0.036233
2.646221 1.001680 -0.043577
2.742080 1.008404 -0.058403
2.839170 1.015214 -0.064891
2.936251 1.022024 -0.070953
3.033871 1.028871 -0.072624
3.129323 1.035567 -0.089716
3.224865 1.042269 -0.106394
3.322979 1.049151 -0.102809
3.420527 1.055993 -0.102762
3.514790 1.062606 -0.130091
3.611907 1.069418 -0.133165
3.710283 1.076318 -0.123880
3.807713 1.083153 -0.122111
3.902726 1.089817 -0.143798
4.000510 1.096676 -0.137197
4.093186 1.103177 -0.185934
4.190674 1.110016 -0.182473
4.287447 1.116804 -0.186553
4.383914 1.123570 -0.194199
4.480700 1.130359 -0.197431
4.575045 1.136977 -0.236155
4.671471 1.143741 -0.246532
4.768904 1.150576 -0.240518
4.865382 1.157343 -0.250050
4.962320 1.164143 -0.251172
0.057622 0.821018 0.425395
0.097424 0.824120 0.202591
0.197392 0.831910 0.195951
0.291154 0.839217 0.166579
0.396149 0.847399 0.180181
0.494968 0.855100 0.171042
0.584013 0.862040 0.123565
0.690602 0.870346 0.146344
0.787481 0.877896 0.130769
0.890859 0.885952 0.142865
0.984057 0.893215 0.112603
1.082759 0.900907 0.106137
1.179673 0.908459 0.092311
1.279181 0.916214 0.090637
1.376932 0.923831 0.081595
1.476314 0.931576 0.080820
1.575614 0.939315 0.080501
1.670102 0.946678 0.057103
1.767791 0.954291 0.049817
1.864706 0.961843 0.039038
1.960159 0.969282 0.020829
2.057850 0.976895 0.014843
2.156918 0.984615 0.017165
2.251779 0.992008 -0.003706
2.347414 0.999461 -0.020220
2.446376 1.007173 -0.016584
2.542066 1.014630 -0.032247
2.640289 1.022284 -0.031684
2.734844 1.029653 -0.054408
2.830695 1.037123 -0.068809
2.929998 1.044861 -0.059030
3.026416 1.052375 -0.068614
3.122326 1.059849 -0.081739
3.218293 1.067328 -0.094443
3.314314 1.074811 -0.106727
3.409910 1.082261 -0.122561
3.506974 1.089825 -0.126058
3.603574 1.097353 -0.133105
3.701467 1.104982 -0.127794
3.797629 1.112475 -0.137963
3.891481 1.119789 -0.171594
3.989706 1.127444 -0.161020
4.084579 1.134837 -0.185862
4.182691 1.142483 -0.174428
4.279374 1.150017 -0.178504
4.375140 1.157480 -0.194120
4.469855 1.164862 -0.225277
4.565621 1.172325 -0.244054
4.663040 1.179917 -0.238464
4.759911 1.187466 -0.240430
4.856552 1.194997 -0.245967
4.952210 1.202451 -0.271052
0.083344 0.824267 0.175540
0.191688 0.833609 0.199762
0.282300 0.841422 0.158802
0.383227 0.850125 0.156921
0.487033 0.859075 0.167135
0.580906 0.867170 0.139052
0.684484 0.876101 0.150207
0.782221 0.884529 0.138530
0.882726 0.893195 0.138965
0.979503 0.901540 0.124285
1.077199 0.909963 0.113937
1.173142 0.918236 0.096220
1.274276 0.926957 0.102370
1.371073 0.935303 0.089435
1.466249 0.943510 0.069104
1.562317 0.951794 0.053109
1.660796 0.960285 0.049299
1.759224 0.968772 0.045937
1.857596 0.977255 0.043017
1.957384 0.985859 0.048403
2.050576 0.993895 0.018837
2.147456 1.002248 0.009357
2.243657 1.010543 -0.003633
2.341898 1.019014 -0.004368
2.437473 1.027255 -0.020447
2.534382 1.035612 -0.028208
2.630674 1.043915 -0.039492
2.726398 1.052169 -0.054306
2.823349 1.060528 -0.060786
2.920293 1.068887 -0.066836
3.018321 1.077340 -0.064533
3.111502 1.085375 -0.097470
3.207986 1.093694 -0.106212
3.305480 1.102101 -0.106591
3.400534 1.110297 -0.126390
3.499854 1.118861 -0.110020
3.594546 1.127026 -0.132952
3.691520 1.135388 -0.135589
3.788470 1.143748 -0.137798
3.883827 1.151970 -0.155502
3.981167 1.160363 -0.152881
4.077371 1.168658 -0.161778
4.172934 1.176899 -0.178226
4.269569 1.185231 -0.182297
4.364678 1.193432 -0.205883
4.461397 1.201772 -0.209113
4.556759 1.209995 -0.231872
4.653302 1.218319 -0.238248
4.750107 1.226666 -0.240208
4.846684 1.234994 -0.245739
4.942882 1.243289 -0.258834
0.084221 0.825797 0.206411
0.184022 0.835322 0.199779
0.279673 0.844451 0.178146
0.378421 0.853876 0.168547
0.477141 0.863298 0.159397
0.577779 0.872903 0.158455
0.673539 0.882042 0.138564
0.770307 0.891278 0.122986
0.869874 0.900780 0.119512
0.969371 0.910276 0.116496
1.066130 0.919511 0.102237
1.164659 0.928915 0.096217
1.265709 0.938559 0.102365
1.359076 0.947470 0.073788
1.457522 0.956866 0.069095
1.557527 0.966410 0.072686
1.651121 0.975343 0.045366
1.750253 0.984805 0.045922
1.849297 0.994257 0.046928
1.944573 1.003351 0.028729
2.038491 1.012314 0.003078
2.138163 1.021827 0.009334
2.235652 1.031131 0.004224
2.331777 1.040306 -0.008338
2.429238 1.049607 -0.012583
2.522869 1.058544 -0.040087
2.620363 1.067849 -0.043477
2.716623 1.077036 -0.054341
2.812331 1.086170 -0.068739
2.908101 1.095311 -0.082715
3.005570 1.104613 -0.084385
3.101936 1.113810 -0.093549
3.197810 1.122961 -0.106257
3.298689 1.132589 -0.078855
3.391631 1.141459 -0.114525
3.488976 1.150750 -0.114043
3.586266 1.160035 -0.113129
3.682647 1.169234 -0.119734
3.776994 1.178239 -0.145813
3.873090 1.187410 -0.155561
3.969226 1.196585 -0.164887
4.065403 1.205764 -0.173792
4.160258 1.214818 -0.198217
4.257222 1.224072 -0.198310
4.353846 1.233294 -0.201964
4.450467 1.242515 -0.205193
4.546003 1.251633 -0.223960
4.642683 1.260861 -0.226345
4.738177 1.269975 -0.248271
4.834491 1.279167 -0.257798
4.930661 1.288345 -0.270899
0.077114 0.826474 0.206452
0.167476 0.835873 0.165067
0.276490 0.847213 0.193642
0.367040 0.856632 0.153094
0.466733 0.867003 0.147798
0.568308 0.877569 0.150718
0.668796 0.888022 0.150229
0.767308 0.898269 0.142432
0.865785 0.908513 0.135085
0.962415 0.918565 0.120393
1.060851 0.928804 0.113934
1.158374 0.938949 0.104017
1.256743 0.949181 0.098448
1.353394 0.959235 0.085504
1.450066 0.969291 0.072992
1.547560 0.979433 0.064827
1.644252 0.989491 0.053179
1.737883 0.999231 0.026266
1.836176 1.009456 0.023323
1.938087 1.020056 0.040481
2.033309 1.029962 0.022706
2.130008 1.040021 0.013221
2.226714 1.050080 0.004171
2.322090 1.060001 -0.012340
2.417538 1.069930 -0.028430
2.518744 1.080458 -0.008560
2.611713 1.090129 -0.039596
2.707275 1.100069 -0.054416
2.801740 1.109896 -0.076730
2.900280 1.120146 -0.070918
2.998708 1.130385 -0.064662
3.093847 1.140281 -0.081750
3.188565 1.150134 -0.102386
3.286868 1.160360 -0.094830
3.381709 1.170226 -0.114630
3.479431 1.180391 -0.110180
3.575292 1.190363 -0.121192
3.671626 1.200383 -0.127808
3.768379 1.210448 -0.130018
3.861975 1.220184 -0.163648
3.958812 1.230257 -0.165017
4.055621 1.240327 -0.165959
4.149682 1.250112 -0.198356
4.248496 1.260391 -0.174532
4.343714 1.270296 -0.194136
4.439931 1.280304 -0.201356
4.535098 1.290204 -0.224116
4.630937 1.300173 -0.238482
4.727816 1.310251 -0.236454
4.824213 1.320278 -0.241990
4.920031 1.330245 -0.259087
0.065876 0.826789 0.194974
0.165538 0.838118 0.188314
0.262079 0.849091 0.170520
0.358662 0.860069 0.153157
0.461216 0.871726 0.159473
0.563607 0.883365 0.166274
0.687792 0.897480 0.262865
0.760390 0.905732 0.150230
0.850441 0.915968 0.107860
0.950705 0.927365 0.108714
1.050863 0.938749 0.110030
1.148301 0.949825 0.100099
1.248291 0.961190 0.102330
1.345661 0.972258 0.093293
1.441378 0.983138 0.076863
1.537148 0.994024 0.060857
1.637682 1.005451 0.068803
1.729609 1.015900 0.034044
1.827015 1.026972 0.027172
1.923663 1.037957 0.016805
2.021756 1.049107 0.014738
2.121190 1.060409 0.020988
2.216393 1.071231 0.004052
2.313002 1.082212 -0.004581
2.408314 1.093046 -0.020675
2.506856 1.104247 -0.016604
2.600374 1.114877 -0.043703
2.697647 1.125933 -0.046671
2.793719 1.136853 -0.057120
2.889255 1.147713 -0.071102
2.985943 1.158703 -0.076741
3.081033 1.169511 -0.093843
3.177237 1.180447 -0.102598
3.272966 1.191328 -0.114896
3.371612 1.202540 -0.102948
3.466421 1.213317 -0.122337
3.562676 1.224258 -0.129391
3.660647 1.235394 -0.120111
3.753996 1.246005 -0.154159
3.851508 1.257088 -0.148003
3.947802 1.268034 -0.153358
4.044101 1.278980 -0.158285
4.139724 1.289849 -0.170764
4.233807 1.300543 -0.202754
4.330570 1.311542 -0.202435
4.427009 1.322503 -0.205678
4.523444 1.333465 -0.208497
4.618354 1.344253 -0.234843
4.714407 1.355171 -0.244804
4.810957 1.366145 -0.246356
4.905686 1.376913 -0.283437
0.061299 0.827697 0.206693
0.154575 0.839148 0.176867
0.257189 0.851745 0.182234
0.349599 0.863090 0.149390
0.453050 0.875790 0.159560
0.595150 0.893235 0.325364
0.687991 0.904633 0.297861
0.796904 0.918004 0.336839
0.848298 0.924314 0.135122
0.943819 0.936040 0.116511
1.038515 0.947666 0.094425
1.139396 0.960051 0.100076
1.238428 0.972209 0.098384
1.336546 0.984254 0.093237
1.433796 0.996193 0.084618
1.529429 1.007934 0.068605
1.625898 1.019777 0.056935
1.720078 1.031339 0.033926
1.819632 1.043561 0.038820
1.916860 1.055497 0.032380
2.013346 1.067343 0.022441
2.109140 1.079103 0.008996
2.208390 1.091287 0.015676
2.302845 1.102883 -0.004792
2.398054 1.114572 -0.020903
2.492069 1.126114 -0.044491
2.590522 1.138200 -0.040009
2.687674 1.150127 -0.042990
2.781302 1.161622 -0.069281
2.877913 1.173482 -0.075366
2.975607 1.185476 -0.073100
3.073751 1.197525 -0.066429
3.166660 1.208931 -0.098984
3.262269 1.220668 -0.111294
3.359363 1.232588 -0.111271
3.454563 1.244276 -0.126708
3.551175 1.256136 -0.129804
3.647765 1.267994 -0.132472
3.743923 1.279799 -0.138689
3.837349 1.291269 -0.172345
3.936637 1.303458 -0.145867
4.029943 1.314913 -0.182680
4.125906 1.326694 -0.191195
4.223195 1.338638 -0.183343
4.318853 1.350381 -0.194998
4.414291 1.362098 -0.210221
4.510911 1.373960 -0.209065
4.603690 1.385350 -0.267361
4.700723 1.397262 -0.261372
4.795707 1.408923 -0.290903
4.891528 1.420687 -0.308036
4.987841 1.432511 -0.316758
0.055826 0.828500 0.214409
0.152072 0.841210 0.196174
0.299374 0.860662 0.371640
0.345697 0.866780 0.164871
0.447974 0.880287 0.171186
0.580159 0.897743 0.298217
0.653944 0.907487 0.193027
0.789405 0.925376 0.340726
0.838882 0.931910 0.131231
0.943336 0.945704 0.151565
1.032455 0.957473 0.106124
1.133168 0.970773 0.111785
1.226920 0.983154 0.086662
1.324974 0.996103 0.081503
1.424618 1.009262 0.084616
1.517735 1.021559 0.056852
1.616495 1.034601 0.056933
1.716705 1.047835 0.065318
1.810755 1.060255 0.042745
1.904185 1.072594 0.016652
2.003493 1.085708 0.022437
2.096378 1.097975 -0.006757
2.198309 1.111436 0.015671
2.294651 1.124159 0.007031
2.386456 1.136282 -0.028799
2.480395 1.148688 -0.052396
2.578153 1.161598 -0.051871
2.678228 1.174814 -0.035089
2.772874 1.187313 -0.053458
2.868178 1.199898 -0.067455
2.962450 1.212348 -0.088954
3.060020 1.225233 -0.086260
3.155974 1.237905 -0.095026
3.249972 1.250318 -0.119240
3.346987 1.263130 -0.119223
3.444409 1.275995 -0.114801
3.538645 1.288440 -0.137764
3.636433 1.301354 -0.128506
3.731645 1.313928 -0.142678
3.826935 1.326512 -0.156436
3.923048 1.339204 -0.161809
4.019880 1.351992 -0.158789
4.114609 1.364502 -0.179254
4.210445 1.377158 -0.187342
4.306009 1.389778 -0.198999
4.400777 1.402293 -0.222205
4.497607 1.415081 -0.217062
4.592844 1.427657 -0.235442
4.689860 1.440469 -0.225453
4.785016 1.453036 -0.246987
4.880132 1.465597 -0.272098
4.976177 1.478281 -0.280813
-0.336196 0.774487 0.291648
-0.192887 0.794836 0.436891
0.044632 0.828563 0.202819
0.220533 0.853539 0.481858
0.346292 0.871397 0.199686
0.437443 0.884340 0.163423
0.575294 0.903913 0.313720
0.637494 0.912746 0.161959
0.765424 0.930911 0.278532
1.021346 0.967250 0.098326
1.121091 0.981414 0.100078
1.219024 0.995320 0.094483
1.312743 1.008627 0.069780
1.413938 1.022996 0.080712
1.512550 1.036999 0.080369
1.604811 1.050099 0.049106
1.704921 1.064314 0.057486
1.798130 1.077549 0.030980
1.894416 1.091221 0.020602
1.991428 1.104996 0.014592
2.088414 1.118768 0.009016
2.185372 1.132535 0.003878
2.281635 1.146204 -0.004768
2.375312 1.159506 -0.028768
2.471016 1.173095 -0.040515
2.571660 1.187386 -0.020221
2.665503 1.200711 -0.042959
2.760056 1.214137 -0.061332
2.854706 1.227577 -0.079290
2.952173 1.241416 -0.077025
3.047450 1.254945 -0.090177
3.145336 1.268844 -0.083077
3.239651 1.282237 -0.103313
3.335992 1.295916 -0.107257
3.430477 1.309333 -0.126663
3.529058 1.323331 -0.109881
3.623622 1.336758 -0.128447
3.720337 1.350491 -0.126702
3.813089 1.363662 -0.164332
3.909482 1.377349 -0.165725
4.005133 1.390931 -0.174657
4.100483 1.404470 -0.187153
4.198476 1.418384 -0.167335
4.291698 1.431621 -0.206899
4.388097 1.445309 -0.206168
4.483918 1.458915 -0.212991
4.578758 1.472382 -0.235361
4.675174 1.486072 -0.233354
4.769802 1.499509 -0.262875
4.866467 1.513235 -0.256033
4.962499 1.526871 -0.260745
-0.363474 0.768280 0.222557
-0.259683 0.784005 0.229402
0.036943 0.828948 0.202804
0.216734 0.856188 0.497290
0.289083 0.867149 0.394806
0.399231 0.883838 0.435735
0.430201 0.888531 0.167290
0.580418 0.911290 0.368013
1.054725 0.983154 0.285476
1.111065 0.991690 0.096178
1.209732 1.006639 0.094487
1.304988 1.021072 0.077605
1.405195 1.036255 0.084633
1.500459 1.050688 0.068624
1.596556 1.065248 0.056957
1.694199 1.080042 0.053573
1.790292 1.094601 0.042777
1.884202 1.108830 0.020617
1.981795 1.123617 0.018542
2.079329 1.138394 0.016908
2.176801 1.153162 0.015718
2.270892 1.167418 -0.004747
2.367027 1.181984 -0.012961
2.463162 1.196550 -0.020743
2.558683 1.211022 -0.032051
2.651259 1.225049 -0.062704
2.748660 1.239806 -0.061303
2.845425 1.254467 -0.063422
2.939426 1.268709 -0.084917
3.035662 1.283290 -0.090143
3.135453 1.298410 -0.067176
3.226614 1.312222 -0.111216
3.324760 1.327092 -0.099277
3.420000 1.341522 -0.110732
3.515288 1.355960 -0.121766
3.610199 1.370340 -0.136357
3.706003 1.384855 -0.142572
3.802205 1.399431 -0.144384
3.895772 1.413607 -0.173641
3.993104 1.428355 -0.162656
4.088610 1.442825 -0.171162
4.184474 1.457349 -0.175257
4.278514 1.471598 -0.202857
4.374192 1.486094 -0.210103
4.469361 1.500513 -0.224905
4.565384 1.515062 -0.227316
4.660694 1.529503 -0.241281
4.756316 1.543990 -0.250833
4.852396 1.558548 -0.251974
4.947914 1.573020 -0.264676
-0.368772 0.765014 0.230192
-0.271768 0.780695 0.213996
0.025648 0.828774 0.191209
0.138102 0.846952 0.234725
0.220614 0.860291 0.166726
1.093500 1.001396 0.499922
1.103851 1.003070 0.107891
1.195529 1.017890 0.074961
1.298205 1.034488 0.093259
1.394931 1.050125 0.084647
1.489250 1.065372 0.064723
1.585996 1.081011 0.056977
1.681197 1.096401 0.041822
1.779432 1.112281 0.042802
1.872468 1.127320 0.016716
1.970640 1.143191 0.018573
2.064542 1.158370 -0.002744
2.164665 1.174555 0.011815
2.259290 1.189852 -0.004707
2.352050 1.204847 -0.032650
2.448121 1.220377 -0.040445
2.546636 1.236303 -0.032002
2.642041 1.251725 -0.042880
2.736320 1.266966 -0.061249
2.832375 1.282494 -0.067324
2.928420 1.298020 -0.072971
3.022877 1.313289 -0.090080
3.118442 1.328738 -0.098843
3.213043 1.344031 -0.115115
3.310104 1.359721 -0.111117
3.407078 1.375397 -0.106685
3.501321 1.390632 -0.125662
3.598643 1.406364 -0.116390
3.692182 1.421486 -0.142488
3.787067 1.436824 -0.156239
3.881658 1.452115 -0.173551
3.977420 1.467596 -0.178499
4.075211 1.483404 -0.159110
4.169593 1.498661 -0.179147
4.264112 1.513941 -0.198769
4.360768 1.529566 -0.190050
4.453822 1.544608 -0.232782
4.550486 1.560234 -0.223215
4.646101 1.575691 -0.229189
4.740220 1.590906 -0.262698
4.837003 1.606551 -0.247859
4.931807 1.621877 -0.272545
-0.371038 0.762440 0.245412
-0.274243 0.778987 0.229247
-0.174189 0.796091 0.225065
0.019387 0.829183 0.194974
0.173898 0.855596 0.396809
0.219098 0.863323 0.189846
1.094068 1.012898 0.104002
1.189013 1.029129 0.086702
1.287335 1.045936 0.085470
1.381511 1.062036 0.065119
1.478163 1.078558 0.056940
1.577916 1.095611 0.064882
1.673702 1.111985 0.053665
1.770994 1.128617 0.050737
1.862401 1.144243 0.016804
1.959714 1.160879 0.014738
2.056273 1.177385 0.009175
2.151448 1.193655 -0.003831
2.247322 1.210045 -0.012468
2.345774 1.226875 -0.004890
2.438449 1.242718 -0.032401
2.531901 1.258693 -0.055559
2.630824 1.275604 -0.042717
2.726690 1.291992 -0.049206
2.821432 1.308188 -0.063184
2.915692 1.324301 -0.080704
3.010567 1.340520 -0.093844
3.106514 1.356922 -0.098634
3.202938 1.373406 -0.099021
3.296942 1.389475 -0.118833
3.393348 1.405956 -0.118366
3.488381 1.422202 -0.129392
3.585995 1.438888 -0.116135
3.681422 1.455202 -0.122329
3.775693 1.471317 -0.140042
3.870816 1.487578 -0.149375
3.964916 1.503664 -0.170240
4.059830 1.519890 -0.182721
4.154175 1.536018 -0.202756
4.248959 1.552221 -0.218390
4.345555 1.568734 -0.209670
4.440168 1.584908 -0.228452
4.536668 1.601405 -0.218876
4.631188 1.617563 -0.240812
4.725870 1.633748 -0.262332
4.822107 1.650200 -0.255476
4.917534 1.666513 -0.264171
-0.381146 0.758477 0.233840
-0.286645 0.775511 0.209978
-0.185588 0.793726 0.209623
-0.063413 0.815748 0.286784
0.011996 0.829340 0.194931
1.083257 1.022433 0.096203
1.178931 1.039678 0.082807
1.276285 1.057226 0.077664
1.374405 1.074912 0.076883
1.468470 1.091867 0.056965
1.567286 1.109679 0.060991
1.662938 1.126920 0.049775
1.757116 1.143895 0.031136
1.855737 1.161672 0.036502
1.948550 1.178401 0.010850
2.045666 1.195906 0.009227
2.142045 1.213278 0.004108
2.237074 1.230407 -0.008463
2.333425 1.247774 -0.012718
2.429117 1.265022 -0.020484
2.522980 1.281941 -0.039678
2.616942 1.298877 -0.058459
2.715025 1.316557 -0.049123
2.810733 1.333808 -0.055178
2.905892 1.350960 -0.064764
3.000026 1.367928 -0.081857
3.095264 1.385094 -0.090597
3.190031 1.402176 -0.102884
3.285323 1.419352 -0.110781
3.380630 1.436531 -0.118252
3.475514 1.453634 -0.129274
3.571286 1.470896 -0.131922
3.666227 1.488009 -0.142097
3.761984 1.505269 -0.143892
3.856604 1.522324 -0.157204
3.952003 1.539520 -0.162132
4.046397 1.556534 -0.178591
4.142170 1.573797 -0.178687
4.237005 1.590891 -0.190319
4.332189 1.608048 -0.197544
4.425799 1.624921 -0.228290
4.520393 1.641971 -0.246651
4.616283 1.659255 -0.244634
4.712562 1.676609 -0.234199
4.807333 1.693692 -0.251301
4.901684 1.710698 -0.279968
4.996589 1.727805 -0.300231
-0.387132 0.755048 0.237606
-0.292811 0.772977 0.213755
-0.189796 0.792559 0.221106
-0.095440 0.810494 0.198141
0.004212 0.829437 0.194882
1.074453 1.032872 0.100114
1.169943 1.051024 0.086726
1.267110 1.069493 0.081593
1.361800 1.087493 0.065162
1.458923 1.105954 0.060910
1.558325 1.124849 0.068865
1.649220 1.142126 0.034116
1.749984 1.161280 0.050819
1.845444 1.179426 0.040483
1.934533 1.196360 -0.004834
2.033622 1.215195 0.005348
2.127822 1.233101 -0.011591
2.223411 1.251271 -0.020225
2.320926 1.269807 -0.016589
2.416466 1.287968 -0.024355
2.513828 1.306475 -0.019834
2.605770 1.323952 -0.050457
2.703072 1.342447 -0.045072
2.798038 1.360499 -0.055078
2.893030 1.378555 -0.064659
2.987523 1.396517 -0.077779
3.079541 1.414008 -0.110317
3.176672 1.432471 -0.102764
3.273682 1.450911 -0.094772
3.366936 1.468637 -0.118122
3.462091 1.486725 -0.125163
3.555155 1.504415 -0.151666
3.652031 1.522829 -0.141951
3.748007 1.541073 -0.139760
3.842443 1.559024 -0.153068
3.936249 1.576855 -0.173922
4.031869 1.595031 -0.174440
4.126185 1.612959 -0.190475
4.223312 1.631421 -0.170202
4.316541 1.649142 -0.201352
4.411605 1.667212 -0.208150
4.506199 1.685193 -0.222509
4.600655 1.703148 -0.240444
4.695453 1.721167 -0.253968
4.789946 1.739129 -0.275061
4.885866 1.757362 -0.267771
4.981538 1.775548 -0.264046
-0.392814 0.751796 0.241545
-0.298673 0.770553 0.217691
-0.199075 0.790396 0.213496
1.102941 1.049806 0.271834
1.157945 1.060766 0.074989
1.257471 1.080595 0.081567
1.356042 1.100234 0.084699
1.451330 1.119219 0.072621
1.545085 1.137898 0.053131
1.644231 1.157652 0.061531
1.736548 1.176045 0.035045
1.831186 1.194900 0.020755
1.927283 1.214047 0.014761
2.020590 1.232637 -0.006548
2.120072 1.252457 0.008019
2.214097 1.271191 -0.008494
2.308832 1.290065 -0.020644
2.402978 1.308823 -0.036318
2.496583 1.327472 -0.055523
2.594415 1.346964 -0.046634
2.688669 1.365743 -0.061036
2.783540 1.384645 -0.071060
2.880053 1.403874 -0.068773
2.971789 1.422151 -0.101727
3.068295 1.441379 -0.098584
3.162279 1.460104 -0.114846
3.259176 1.479409 -0.106865
3.353681 1.498238 -0.118310
3.449546 1.517338 -0.117409
3.544515 1.536260 -0.124030
3.639091 1.555103 -0.134205
3.731394 1.573493 -0.167841
3.826894 1.592520 -0.169219
3.922717 1.611612 -0.166187
4.016465 1.630290 -0.186635
4.111941 1.649312 -0.186735
4.206779 1.668208 -0.194386
4.299948 1.686770 -0.225551
4.395485 1.705805 -0.224380
4.490733 1.724782 -0.226777
4.584577 1.743479 -0.252706
4.681201 1.762730 -0.230295
4.774834 1.781385 -0.263375
4.870357 1.800417 -0.260084
4.964354 1.819145 -0.292335
-0.400356 0.747836 0.241606
-0.300963 0.768668 0.236960
-0.204867 0.788809 0.221244
1.136948 1.070046 0.474775
1.147247 1.072205 0.074978
1.247396 1.093196 0.085462
1.344135 1.113472 0.080765
1.439246 1.133407 0.068679
1.532826 1.153021 0.049182
1.630274 1.173445 0.049724
1.725414 1.193386 0.038934
1.819118 1.213026 0.020712
1.917140 1.233571 0.026515
2.011586 1.253366 0.013086
2.111457 1.274298 0.031606
2.201251 1.293119 -0.008554
2.297711 1.313336 -0.008870
2.392860 1.333279 -0.016640
2.483161 1.352206 -0.055597
2.577851 1.372052 -0.066485
2.674857 1.392384 -0.061119
2.768425 1.411996 -0.079065
2.866390 1.432528 -0.064902
2.960006 1.452150 -0.082002
3.056232 1.472319 -0.078850
3.148478 1.491653 -0.107014
3.243733 1.511618 -0.110945
3.339423 1.531674 -0.110479
3.433751 1.551444 -0.121503
3.528963 1.571400 -0.124153
3.621737 1.590845 -0.150246
3.718159 1.611055 -0.140109
3.811135 1.630542 -0.165374
3.905692 1.650361 -0.174295
4.001624 1.670468 -0.166852
4.096503 1.690354 -0.170938
4.189279 1.709799 -0.202515
4.284275 1.729710 -0.205759
4.378467 1.749452 -0.220553
4.473255 1.769319 -0.226943
4.567836 1.789143 -0.236904
4.661831 1.808844 -0.258428
4.756381 1.828661 -0.271544
4.851745 1.848648 -0.268260
4.946075 1.868420 -0.288527
-0.412918 0.742882 0.222568
-0.286457 0.770599 0.313936
-0.210155 0.787322 0.229062
1.140508 1.083354 0.090579
1.236279 1.104345 0.081513
1.332846 1.125510 0.076804
1.426996 1.146145 0.060785
1.524288 1.167469 0.060876
1.618470 1.188111 0.045720
1.711961 1.208602 0.027060
1.809865 1.230060 0.032405
1.904116 1.250718 0.018533
1.999786 1.271686 0.012961
2.092068 1.291912 -0.011874
2.187766 1.312887 -0.016589
2.282155 1.333575 -0.028756
2.378444 1.354679 -0.028655
2.471034 1.374972 -0.051822
2.570224 1.396712 -0.031084
2.660605 1.416521 -0.069234
2.757902 1.437846 -0.059478
2.850218 1.458080 -0.084933
2.947377 1.479375 -0.074302
3.040863 1.499864 -0.090991
3.136869 1.520907 -0.087420
3.229503 1.541209 -0.111209
3.326365 1.562439 -0.098831
3.418275 1.582584 -0.129736
3.513753 1.603510 -0.128425
3.607565 1.624071 -0.142594
3.702224 1.644818 -0.148388
3.795049 1.665163 -0.173664
3.890508 1.686085 -0.170649
3.985233 1.706847 -0.175173
4.079008 1.727400 -0.191230
4.172884 1.747975 -0.206872
4.267144 1.768634 -0.218108
4.362265 1.789483 -0.216954
4.457098 1.810268 -0.219363
4.551923 1.831051 -0.221347
4.645018 1.851455 -0.254857
4.739166 1.872090 -0.271978
4.834162 1.892911 -0.272699
4.928487 1.913584 -0.288982
-0.417660 0.739497 0.230272
1.129483 1.093731 0.086664
1.227535 1.116181 0.089326
1.320648 1.137500 0.068964
1.417787 1.159741 0.068608
1.513300 1.181610 0.060863
1.604267 1.202438 0.030005
1.699843 1.224321 0.023114
1.794675 1.246034 0.012729
1.893040 1.268555 0.022446
1.988494 1.290410 0.016875
2.080566 1.311491 -0.007959
2.176701 1.333502 -0.008728
2.271497 1.355207 -0.016948
2.366293 1.376911 -0.024738
2.459881 1.398339 -0.040001
2.552945 1.419647 -0.058801
2.649526 1.441760 -0.053442
2.742126 1.462962 -0.075356
2.839144 1.485175 -0.065165
2.931340 1.506285 -0.090205
3.027212 1.528235 -0.087070
3.120086 1.549500 -0.107315
3.216362 1.571543 -0.099347
3.312067 1.593456 -0.094912
3.404203 1.614551 -0.121842
3.497775 1.635976 -0.136435
3.593834 1.657969 -0.126738
3.685537 1.678966 -0.160389
3.781526 1.700943 -0.149834
3.874230 1.722169 -0.174697
3.969108 1.743892 -0.175240
4.063953 1.765608 -0.175352
4.157266 1.786973 -0.194981
4.249864 1.808174 -0.226162
4.346150 1.830220 -0.205058
4.439242 1.851534 -0.231413
4.532762 1.872946 -0.253369
4.627730 1.894690 -0.250945
4.721665 1.916198 -0.268067
4.815903 1.937774 -0.280776
4.910884 1.959521 -0.277080
-0.420826 0.736235 0.245631
1.115708 1.104625 0.074944
1.213575 1.128089 0.077592
1.308922 1.150949 0.068961
1.403470 1.173617 0.056852
1.500342 1.196843 0.056933
1.594873 1.219507 0.045698
1.687208 1.241645 0.023107
1.784691 1.265017 0.028445
1.879239 1.287685 0.018503
1.975168 1.310684 0.016866
2.070366 1.333509 0.011732
2.162925 1.355700 -0.008740
2.257493 1.378373 -0.016960
2.351443 1.400898 -0.028700
2.445425 1.423431 -0.040015
2.538266 1.445690 -0.058816
2.637460 1.469472 -0.033673
2.728651 1.491335 -0.063495
2.821104 1.513501 -0.084993
2.917311 1.536567 -0.078328
3.010394 1.558884 -0.095025
3.106473 1.581920 -0.087489
3.199626 1.604254 -0.103339
3.294217 1.626932 -0.106854
3.387920 1.649398 -0.117889
3.480833 1.671674 -0.136459
3.575060 1.694265 -0.142677
3.668528 1.716675 -0.156434
3.763904 1.739542 -0.149860
3.856386 1.761714 -0.174724
3.950371 1.784248 -0.183237
4.046287 1.807244 -0.167406
4.138146 1.829268 -0.202984
4.232813 1.851964 -0.202254
4.326646 1.874461 -0.213068
4.420293 1.896914 -0.227454
4.514496 1.919499 -0.233436
4.608295 1.941988 -0.246985
4.702383 1.964546 -0.256118
4.796525 1.987117 -0.264829
4.890066 2.009544 -0.289105
4.984527 2.032191 -0.292978
-0.394820 0.740455 0.360707
1.126131 1.120330 0.172616
1.202110 1.139307 0.073693
1.297254 1.163070 0.065059
1.393169 1.187026 0.060784
1.491337 1.211544 0.068715
1.584848 1.234900 0.053565
1.679141 1.258451 0.042769
1.772009 1.281645 0.024540
1.864253 1.304684 0.002794
1.960711 1.328776 0.005085
2.055072 1.352344 -0.003996
2.152041 1.376563 0.003126
2.243804 1.399482 -0.020868
2.338790 1.423205 -0.024709
2.431938 1.446470 -0.039971
2.523397 1.469313 -0.066676
2.618991 1.493189 -0.065278
2.715061 1.517183 -0.059482
2.809954 1.540884 -0.061165
2.902217 1.563928 -0.082237
2.997605 1.587752 -0.079097
3.091461 1.611193 -0.087425
3.183467 1.634173 -0.111214
3.277873 1.657752 -0.114730
3.370527 1.680893 -0.133718
3.466624 1.704894 -0.120475
3.558568 1.727859 -0.146580
3.652604 1.751345 -0.152373
3.747377 1.775016 -0.149778
3.841738 1.798583 -0.150737
3.935738 1.822061 -0.155251
4.029108 1.845381 -0.167316
4.122247 1.868644 -0.182950
4.213516 1.891439 -0.226096
4.309350 1.915375 -0.204990
4.402499 1.938640 -0.223362
4.495777 1.961937 -0.241319
4.589608 1.985372 -0.250872
4.683495 2.008822 -0.260002
4.777437 2.032285 -0.268713
4.871268 2.055720 -0.280996
4.965185 2.079177 -0.292861
1.170994 1.145731 0.434370
1.191073 1.150955 0.073707
1.289975 1.176680 0.084648
1.383223 1.200935 0.068641
1.474991 1.224804 0.045217
1.572865 1.250262 0.053597
1.667657 1.274918 0.046733
1.759564 1.298824 0.024579
1.852280 1.322940 0.006773
1.948482 1.347963 0.009071
2.040596 1.371923 -0.011825
2.138008 1.397260 -0.000760
2.230194 1.421239 -0.020808
2.322481 1.445243 -0.040441
2.417863 1.470053 -0.039902
2.509097 1.493784 -0.066604
2.604454 1.518587 -0.065201
2.699188 1.543228 -0.067320
2.792283 1.567443 -0.080890
2.885434 1.591672 -0.094039
2.979637 1.616175 -0.098837
3.075274 1.641051 -0.091297
3.167070 1.664928 -0.115083
3.262156 1.689660 -0.110652
3.355429 1.713921 -0.121682
3.449577 1.738410 -0.124339
3.541313 1.762271 -0.150440
3.635895 1.786873 -0.148271
3.729687 1.811269 -0.153636
3.822442 1.835395 -0.170524
3.916954 1.859979 -0.167073
4.009517 1.884055 -0.187111
4.102213 1.908166 -0.206736
4.196444 1.932676 -0.206000
4.289583 1.956903 -0.220800
4.382570 1.981089 -0.239174
4.476145 2.005429 -0.249146
4.570417 2.029950 -0.246714
4.663663 2.054204 -0.263829
4.758107 2.078769 -0.256555
4.851656 2.103102 -0.268832
4.944708 2.127306 -0.296679
1.183407 1.163272 0.089380
1.273233 1.187560 0.057293
1.371819 1.214217 0.068692
1.465644 1.239586 0.057038
1.557245 1.264354 0.034044
1.653340 1.290337 0.035027
1.746492 1.315524 0.020735
1.840384 1.340912 0.010804
1.935645 1.366669 0.009177
2.029517 1.392051 0.000110
2.122746 1.417259 -0.012467
2.216012 1.442477 -0.024620
2.306854 1.467040 -0.052147
2.402043 1.492778 -0.051606
2.496001 1.518183 -0.058535
2.589954 1.543587 -0.065031
2.686637 1.569729 -0.051302
2.779429 1.594819 -0.064854
2.870222 1.619368 -0.093842
2.962694 1.644372 -0.110530
3.058617 1.670308 -0.099018
3.152071 1.695577 -0.106916
3.245093 1.720729 -0.118364
3.338593 1.746010 -0.125414
3.431691 1.771183 -0.136019
3.524040 1.796153 -0.154157
3.616878 1.821255 -0.167903
3.711969 1.846967 -0.157338
3.804505 1.871988 -0.174220
3.898464 1.897393 -0.174748
3.992078 1.922705 -0.178833
4.085100 1.947857 -0.190469
4.179862 1.973480 -0.177750
4.271071 1.998142 -0.216477
4.365037 2.023549 -0.214880
4.458045 2.048697 -0.228829
4.550295 2.073641 -0.258335
4.644723 2.099173 -0.247480
4.738323 2.124481 -0.252179
4.831296 2.149620 -0.272440
4.924999 2.174956 -0.276296
1.174178 1.174615 0.097195
1.264536 1.199946 0.069025
1.357378 1.225973 0.053013
1.451031 1.252228 0.041345
1.549913 1.279949 0.057578
1.639837 1.305158 0.027157
1.738479 1.332812 0.044304
1.829947 1.358454 0.022588
1.922201 1.384317 0.005218
2.017175 1.410942 0.004030
2.111442 1.437369 -0.000660
2.203161 1.463082 -0.020701
2.296818 1.489338 -0.028479
2.391070 1.515760 -0.031876
2.483547 1.541685 -0.046702
2.576085 1.567628 -0.061108
2.670321 1.594046 -0.063217
2.761868 1.619711 -0.084701
2.855077 1.645841 -0.093881
2.951779 1.672950 -0.074870
3.043472 1.698656 -0.095092
3.136209 1.724654 -0.106960
3.230778 1.751166 -0.102517
3.321397 1.776570 -0.133413
3.412642 1.802149 -0.159929
3.507231 1.828667 -0.154208
3.600211 1.854733 -0.163976
3.693594 1.880912 -0.169338
3.786636 1.906996 -0.178260
3.881360 1.933551 -0.166834
3.974390 1.959631 -0.174905
4.066271 1.985389 -0.198508
4.158597 2.011271 -0.217707
4.252623 2.037631 -0.212550
4.344615 2.063420 -0.238899
4.439314 2.089968 -0.220913
4.532566 2.116111 -0.226455
4.624671 2.141932 -0.255544
4.718779 2.168314 -0.244261
4.811642 2.194347 -0.260528
4.903900 2.220211 -0.296360
4.997337 2.246406 -0.303793
1.160042 1.185537 0.085469
1.251776 1.212240 0.065117
1.348249 1.240324 0.068690
1.440052 1.267047 0.049194
1.534165 1.294443 0.041890
1.628983 1.322045 0.038950
1.723747 1.349631 0.036456
1.814296 1.375989 0.010799
1.908368 1.403374 0.005234
2.003073 1.430942 0.004048
2.096428 1.458118 -0.004586
2.189159 1.485112 -0.016734
2.280701 1.511760 -0.036357
2.376501 1.539647 -0.027902
2.467544 1.566149 -0.050631
2.561520 1.593506 -0.053168
2.653822 1.620375 -0.067150
2.746710 1.647414 -0.076748
2.840644 1.674758 -0.077993
2.935520 1.702377 -0.070873
3.025025 1.728431 -0.106968
3.118471 1.755634 -0.110898
3.211010 1.782572 -0.122347
3.305309 1.810022 -0.117476
3.398284 1.837087 -0.124100
3.490482 1.863925 -0.138255
3.583131 1.890896 -0.148014
3.675822 1.917878 -0.157351
3.767515 1.944570 -0.178218
3.861970 1.972066 -0.166790
3.954114 1.998888 -0.182834
4.047535 2.026083 -0.182507
4.138421 2.052540 -0.217659
4.231919 2.079757 -0.216492
4.324401 2.106679 -0.230862
4.416747 2.133561 -0.248811
4.510485 2.160848 -0.242375
4.602979 2.187773 -0.259482
4.696481 2.214991 -0.256194
4.788970 2.241915 -0.276455
4.882043 2.269008 -0.284308
4.974528 2.295930 -0.311728
1.179893 1.205102 0.234048
1.243903 1.224361 0.080754
1.336186 1.252126 0.064748
1.430032 1.280362 0.057006
1.525344 1.309038 0.057555
1.617671 1.336817 0.042841
1.710043 1.364609 0.028552
1.803149 1.392622 0.018621
1.896938 1.420840 0.013057
1.989382 1.448654 0.000049
2.082507 1.476672 -0.008588
2.176258 1.504879 -0.012852
2.269978 1.533077 -0.016678
2.360106 1.560193 -0.043782
2.453853 1.588399 -0.046755
2.548682 1.616930 -0.041379
2.640689 1.644613 -0.055357
2.732227 1.672154 -0.072878
2.822834 1.699415 -0.097910
2.915568 1.727316 -0.106672
3.010229 1.755796 -0.099131
3.104314 1.784104 -0.095122
3.197428 1.812119 -0.098620
3.287105 1.839100 -0.133493
3.379900 1.867020 -0.140128
3.473494 1.895179 -0.138380
3.565520 1.922867 -0.152123
3.658701 1.950903 -0.153503
3.750134 1.978412 -0.174372
3.843340 2.006455 -0.174904
3.937136 2.034675 -0.167031
4.027303 2.061804 -0.206586
4.121095 2.090023 -0.197869
4.213480 2.117819 -0.208670
4.305195 2.145414 -0.231026
4.397522 2.173192 -0.244987
4.490363 2.201125 -0.250537
4.583613 2.229182 -0.247675
4.675931 2.256957 -0.264366
4.768690 2.284865 -0.272644
4.861066 2.312659 -0.292493
4.954100 2.340650 -0.295931
1.219731 1.232103 0.484254
1.231262 1.235692 0.076783
1.324065 1.264569 0.064677
1.420663 1.294627 0.072607
1.509721 1.322339 0.041759
1.601123 1.350781 0.023092
1.697549 1.380786 0.032361
1.791059 1.409883 0.026352
1.881850 1.438135 0.005034
1.974060 1.466828 -0.007991
2.065665 1.495332 -0.024538
2.162334 1.525413 -0.009094
2.255767 1.554486 -0.012930
2.350348 1.583917 -0.008430
2.437927 1.611169 -0.050934
2.529707 1.639728 -0.065359
2.626968 1.669993 -0.039770
2.716071 1.697719 -0.073143
2.808450 1.726465 -0.082332
2.898880 1.754604 -0.106962
2.993270 1.783975 -0.099435
3.085247 1.812595 -0.111322
3.178158 1.841506 -0.114843
3.268919 1.869748 -0.137808
3.361873 1.898673 -0.140483
3.455197 1.927712 -0.138748
3.547333 1.956382 -0.148524
3.639149 1.984953 -0.161860
3.731724 2.013759 -0.166810
3.823321 2.042261 -0.183293
3.915950 2.071085 -0.187398
4.007697 2.099634 -0.203043
4.100373 2.128472 -0.206304
4.193305 2.157389 -0.205151
4.284493 2.185764 -0.231509
4.377008 2.214552 -0.237494
4.469337 2.243282 -0.247052
4.561527 2.271969 -0.260180
4.654335 2.300848 -0.260904
4.746166 2.329423 -0.285180
4.839045 2.358324 -0.285058
4.931396 2.387061 -0.300502
1.220231 1.248345 0.084561
1.311169 1.277640 0.064618
1.405203 1.307932 0.060777
1.500660 1.338683 0.065226
1.593117 1.368468 0.054424
1.681357 1.396894 0.020466
1.774622 1.426938 0.014441
1.864501 1.455892 -0.010837
1.959762 1.486579 -0.004184
2.051700 1.516197 -0.016793
2.145542 1.546427 -0.017138
2.237499 1.576051 -0.028890
2.330078 1.605874 -0.036265
2.420933 1.635142 -0.055075
2.514111 1.665159 -0.057642
2.608330 1.695511 -0.051853
2.700870 1.725322 -0.057509
2.790859 1.754311 -0.082558
2.883950 1.784299 -0.083399
2.976044 1.813967 -0.091746
3.064946 1.842606 -0.127463
3.157188 1.872321 -0.134976
3.250295 1.902315 -0.134112
3.342939 1.932160 -0.136794
3.434776 1.961744 -0.147004
3.527405 1.991584 -0.148833
3.620009 2.021415 -0.150232
3.711213 2.050796 -0.167140
3.802519 2.080210 -0.183633
3.894546 2.109855 -0.191735
3.987485 2.139795 -0.187453
4.079248 2.169356 -0.198698
4.171335 2.199021 -0.205533
4.262232 2.228303 -0.231901
4.354001 2.257865 -0.245885
4.447332 2.287931 -0.231489
4.538776 2.317389 -0.252617
4.630375 2.346897 -0.273324
4.722445 2.376557 -0.285625
4.814743 2.406290 -0.293508
4.907088 2.436038 -0.300968
4.998817 2.465588 -0.331994
1.206776 1.259281 0.076726
1.296697 1.289189 0.052856
1.391990 1.320884 0.056840
1.480555 1.350340 0.025968
1.580077 1.383441 0.054407
1.668044 1.412699 0.020446
1.764451 1.444764 0.034087
1.853971 1.474539 0.008827
1.945588 1.505011 -0.004209
2.040429 1.536555 0.002896
2.130795 1.566611 -0.017168
2.223072 1.597302 -0.024973
2.317114 1.628581 -0.020493
2.405334 1.657923 -0.055111
2.497669 1.688634 -0.061635
2.589996 1.719342 -0.067732
2.682838 1.750221 -0.069438
2.774117 1.780581 -0.082602
2.865451 1.810959 -0.095346
2.958730 1.841983 -0.091793
3.051014 1.872677 -0.095746
3.142399 1.903072 -0.107218
3.232558 1.933059 -0.130191
3.325715 1.964043 -0.124920
3.416436 1.994217 -0.143082
3.508014 2.024676 -0.152873
3.600706 2.055505 -0.150294
3.691628 2.085746 -0.167205
3.783628 2.116345 -0.171744
3.875629 2.146945 -0.175857
3.965877 2.176962 -0.203475
4.057699 2.207502 -0.210738
4.149810 2.238138 -0.213587
4.241188 2.268530 -0.227987
4.331751 2.298652 -0.257940
4.424425 2.329475 -0.251539
4.516056 2.359952 -0.264681
4.608126 2.390574 -0.269415
4.700376 2.421257 -0.269727
4.791892 2.451695 -0.289598
4.884316 2.482436 -0.285067
4.975805 2.512865 -0.312095
1.213140 1.278476 0.174570
1.286279 1.303649 0.068523
1.378179 1.335280 0.056838
1.470827 1.367168 0.049511
1.562739 1.398803 0.038693
1.653262 1.429960 0.020443
1.747963 1.462555 0.026217
1.837869 1.493500 0.004886
1.932438 1.526049 0.011549
2.022435 1.557025 -0.008936
2.115007 1.588887 -0.013226
2.206342 1.620323 -0.024977
2.297708 1.651770 -0.036304
2.389674 1.683424 -0.043251
2.481635 1.715075 -0.049771
2.572515 1.746355 -0.063778
