# This PCD file was generated using the MATLAB® pcwrite function
# from Computer Vision Toolbox®.
# .PCD v.7 - Point Cloud Data file format
VERSION .7
FIELDS x y z
SIZE 4 4 4
TYPE F F F
COUNT 1 1 1
WIDTH 1704
HEIGHT 1
VIEWPOINT 0 0 0 1 0 0 0
POINTS 1704
DATA ascii
23.644711 0.865147 1.971346
23.652390 0.865163 2.137946
23.677588 0.865218 2.283329
23.688475 0.865241 2.443423
23.703676 0.865273 2.597312
23.720573 0.865309 2.748008
23.741917 0.865355 2.892606
23.762337 0.865399 3.037021
23.776354 0.865429 3.187080
23.794903 0.865469 3.331092
23.809767 0.865501 3.477799
23.832020 0.865548 3.615642
23.850620 0.865588 3.756194
23.854321 0.865596 3.910829
23.868269 0.865626 4.053777
23.892616 0.865678 4.185184
23.901960 0.865698 4.330549
23.918928 0.865734 4.467239
23.914999 0.865725 4.623289
23.944559 0.865789 4.745608
23.964729 0.865832 4.876155
23.978296 0.865861 5.012062
23.993933 0.865895 5.145016
23.991205 0.865889 5.294159
23.571589 0.859143 1.153870
23.579657 0.859158 1.327978
23.591730 0.859181 1.495671
23.615723 0.859226 1.647916
23.622986 0.859240 1.818099
23.650181 0.859292 1.963887
23.668493 0.859326 2.118520
23.664497 0.859318 2.296815
23.702078 0.859390 2.427109
23.711981 0.859409 2.586980
23.710018 0.859404 2.758366
23.739462 0.859460 2.894097
23.751698 0.859484 3.047280
23.768414 0.859515 3.194374
23.792437 0.859561 3.332546
23.790710 0.859557 3.496585
23.812887 0.859599 3.634342
23.831406 0.859634 3.774808
23.857445 0.859684 3.906520
23.871416 0.859710 4.049479
23.870344 0.859708 4.206367
23.916506 0.859796 4.315002
23.913586 0.859790 4.471391
23.929686 0.859821 4.607866
23.939184 0.859838 4.749708
23.944897 0.859849 4.894069
23.961292 0.859880 5.027129
23.982689 0.859921 5.154521
23.994541 0.859943 5.289967
23.992151 0.859938 5.581829
23.574017 0.861280 1.149413
23.571777 0.861275 1.335750
23.620165 0.861372 1.460801
23.631264 0.861394 1.628329
23.625505 0.861382 1.813684
23.636909 0.861404 1.977537
23.673708 0.861477 2.111126
23.661764 0.861453 2.298404
23.683292 0.861496 2.446530
23.709238 0.861548 2.588542
23.731579 0.861592 2.733359
23.742140 0.861613 2.889756
23.759851 0.861648 3.037096
23.765657 0.861659 3.195887
23.786926 0.861702 3.336946
23.815592 0.861759 3.469159
23.832335 0.861792 3.612781
23.834217 0.861795 3.770531
23.849068 0.861825 3.913674
23.865824 0.861858 4.053754
23.887350 0.861901 4.187976
23.905203 0.861936 4.324862
23.919350 0.861964 4.464367
23.938349 0.862002 4.598073
23.945015 0.862015 4.742733
23.956537 0.862038 4.881582
23.970089 0.862065 5.017447
23.962412 0.862049 5.172302
23.988810 0.862102 5.294008
23.541672 0.860753 1.001193
23.579100 0.860827 1.141804
23.589813 0.860848 1.312889
23.591579 0.860851 1.492800
23.618200 0.860903 1.642008
23.617630 0.860902 1.821267
23.650089 0.860966 1.961009
23.665773 0.860996 2.118637
23.669773 0.861004 2.287963
23.675303 0.861015 2.453969
23.706593 0.861076 2.590018
23.731630 0.861126 2.731872
23.739489 0.861141 2.891207
23.751745 0.861165 3.044389
23.773956 0.861209 3.185651
23.795273 0.861251 3.326744
23.812927 0.861285 3.470557
23.824114 0.861307 3.619926
23.845491 0.861349 3.757570
23.863205 0.861384 3.897903
23.865963 0.861389 4.052258
23.887497 0.861432 4.186479
23.902521 0.861461 4.326180
23.922367 0.861500 4.460062
23.929934 0.861515 4.604951
23.939449 0.861534 4.746792
23.945181 0.861545 4.891153
23.961592 0.861577 5.024211
23.988827 0.861631 5.146115
23.994875 0.861642 5.287044
23.571386 0.862356 1.152024
23.597546 0.862409 1.304748
23.609726 0.862434 1.472519
23.636433 0.862488 1.621808
23.630703 0.862476 1.807186
23.644773 0.862504 1.968052
23.655128 0.862525 2.131651
23.680357 0.862577 2.277044
23.688606 0.862593 2.440123
23.709208 0.862635 2.588084
23.726151 0.862669 2.738802
23.736689 0.862691 2.895176
23.754377 0.862727 3.042492
23.782070 0.862783 3.177936
23.789660 0.862798 3.333584
23.801756 0.862823 3.483155
23.821215 0.862862 3.623838
23.836996 0.862894 3.767205
23.857468 0.862936 3.904649
23.865822 0.862953 4.053293
23.887350 0.862997 4.187514
23.882494 0.862986 4.346943
23.919357 0.863062 4.463905
23.912586 0.863047 4.622748
23.947905 0.863119 4.739488
23.962326 0.863149 4.875584
23.941109 0.863105 5.044538
23.976990 0.863178 5.158127
23.988832 0.863202 5.293544
23.581676 0.860231 1.138426
23.594988 0.860257 1.306466
23.599379 0.860265 1.483356
23.623432 0.860312 1.635631
23.646490 0.860356 1.787725
23.644838 0.860353 1.966713
23.655203 0.860373 2.130312
23.680441 0.860422 2.275704
23.696722 0.860453 2.429858
23.717369 0.860493 2.577853
23.723558 0.860505 2.740410
23.731380 0.860520 2.899710
23.746326 0.860549 3.049929
23.765776 0.860587 3.194082
23.787056 0.860628 3.335140
23.807440 0.860668 3.476024
23.821379 0.860695 3.622489
23.837168 0.860725 3.765855
23.866053 0.860782 3.894732
23.863195 0.860776 4.054784
23.884718 0.860818 4.188993
23.905411 0.860858 4.323046
23.919569 0.860885 4.462550
23.918535 0.860883 4.615808
23.939507 0.860924 4.746475
23.959677 0.860963 4.876995
23.973249 0.860989 5.012871
23.977243 0.860997 5.156769
23.992016 0.861025 5.289455
23.561161 0.858886 1.162677
23.584694 0.858930 1.318409
23.612396 0.858982 1.467861
23.615644 0.858988 1.644451
23.628178 0.859012 1.808593
23.639614 0.859033 1.972454
23.663193 0.859078 2.121042
23.672506 0.859095 2.284383
23.688749 0.859125 2.438503
23.701300 0.859149 2.595351
23.720915 0.859186 2.743082
23.742289 0.859226 2.887675
23.757288 0.859255 3.037939
23.779528 0.859297 3.179225
23.778864 0.859295 3.343570
23.810268 0.859354 3.472853
23.824221 0.859381 3.619330
23.845602 0.859421 3.756973
23.840906 0.859412 3.920147
23.871708 0.859470 4.045976
23.890444 0.859505 4.183050
23.908323 0.859539 4.319945
23.908241 0.859539 4.473493
23.924339 0.859569 4.609940
23.939587 0.859598 4.746193
23.951096 0.859619 4.885017
23.967533 0.859650 5.018100
23.983150 0.859680 5.151000
23.983332 0.859680 5.297363
23.994320 0.859700 5.432537
23.571447 0.856208 1.148551
23.582140 0.856227 1.319601
23.604649 0.856266 1.475127
23.623524 0.856300 1.633487
23.630865 0.856313 1.803704
23.639692 0.856328 1.970586
23.642101 0.856332 2.143156
23.680593 0.856401 2.273554
23.699564 0.856434 2.424734
23.706802 0.856447 2.587552
23.731857 0.856491 2.729403
23.739733 0.856505 2.888737
23.743828 0.856512 3.050700
23.771494 0.856561 3.186092
23.779057 0.856574 3.341691
23.804943 0.856620 3.476754
23.827213 0.856660 3.614568
23.848618 0.856698 3.752221
23.849552 0.856699 3.909698
23.855078 0.856709 4.061148
23.899185 0.856787 4.172670
23.914274 0.856814 4.312419
23.925631 0.856834 4.454767
23.921774 0.856827 4.610842
23.954269 0.856885 4.730396
23.954304 0.856884 4.880354
23.985262 0.856939 4.999670
23.986406 0.856941 5.146361
23.986610 0.856941 5.292737
23.571312 0.857219 1.146447
23.602673 0.857276 1.293055
23.617517 0.857303 1.457801
23.607784 0.857285 1.649575
23.638657 0.857341 1.792532
23.647537 0.857357 1.959448
23.647354 0.857356 2.135050
23.667259 0.857392 2.286375
23.691526 0.857436 2.431543
23.706802 0.857464 2.585436
23.721071 0.857490 2.739090
23.745186 0.857534 2.880738
23.757498 0.857556 3.033941
23.779762 0.857596 3.175224
23.798382 0.857630 3.319241
23.802261 0.857637 3.477522
23.810654 0.857652 3.629719
23.837572 0.857701 3.761563
23.841270 0.857708 3.916134
23.872095 0.857764 4.041957
23.888029 0.857792 4.181860
23.905920 0.857825 4.318740
23.911556 0.857835 4.466660
23.933413 0.857875 4.597530
23.925722 0.857860 4.756070
23.971838 0.857944 4.861603
23.962294 0.857927 5.019578
23.980824 0.857960 5.149705
23.983940 0.857966 5.293325
23.568651 0.856393 1.146875
23.579365 0.856412 1.317913
23.612270 0.856471 1.461246
23.628613 0.856500 1.622669
23.638638 0.856517 1.789885
23.642269 0.856524 1.962820
23.657967 0.856551 2.120408
23.659319 0.856553 2.292686
23.694258 0.856616 2.425914
23.714935 0.856653 2.573892
23.731960 0.856683 2.724627
23.745295 0.856707 2.878079
23.757626 0.856728 3.031281
23.766216 0.856744 3.187142
23.779289 0.856767 3.336905
23.802441 0.856808 3.474856
23.819178 0.856838 3.618412
23.823843 0.856846 3.773233
23.849905 0.856892 3.904897
23.866716 0.856922 4.044971
23.888292 0.856961 4.179184
23.892010 0.856967 4.330156
23.917551 0.857013 4.458369
23.925137 0.857026 4.603232
23.931803 0.857038 4.747826
23.960634 0.857089 4.869995
23.988743 0.857139 4.992085
23.978287 0.857120 5.149764
23.984333 0.857131 5.290638
23.563467 0.855554 1.151394
23.584492 0.855590 1.310184
23.609653 0.855634 1.462672
23.623386 0.855658 1.627115
23.625534 0.855662 1.803373
23.652819 0.855709 1.949159
23.665932 0.855732 2.109790
23.667334 0.855734 2.282102
23.688957 0.855772 2.430240
23.709621 0.855808 2.578193
23.726631 0.855838 2.728903
23.731813 0.855846 2.891152
23.760441 0.855896 3.026723
23.771795 0.855916 3.179677
23.798653 0.855963 3.314943
23.797039 0.855960 3.479007
23.813759 0.855989 3.622539
23.832350 0.856022 3.762995
23.858459 0.856067 3.894693
23.861252 0.856072 4.049022
23.899765 0.856139 4.166219
23.903543 0.856146 4.317241
23.926291 0.856185 4.448308
23.916754 0.856168 4.609974
23.949261 0.856225 4.729492
23.952198 0.856230 4.876658
23.968683 0.856259 5.009735
23.990170 0.856296 5.137142
23.987507 0.856291 5.286262
23.555725 0.854519 1.158912
23.587044 0.854572 1.305444
23.586288 0.854571 1.488387
23.628593 0.854643 1.619361
23.620300 0.854628 1.807729
23.634401 0.854652 1.968542
23.658022 0.854692 2.117095
23.667377 0.854708 2.280411
23.691685 0.854750 2.425572
23.715057 0.854789 2.570571
23.718613 0.854795 2.736063
23.748173 0.854846 2.871813
23.755091 0.854857 3.030883
23.785591 0.854909 3.163395
23.779524 0.854898 3.333575
23.810986 0.854952 3.462843
23.808352 0.854947 3.626598
23.838081 0.854998 3.755554
23.869823 0.855052 3.881562
23.883930 0.855076 4.024562
23.902773 0.855108 4.161680
23.892389 0.855090 4.326809
23.920797 0.855139 4.452211
23.928419 0.855151 4.597086
23.949488 0.855187 4.727780
23.975523 0.855232 4.852790
23.966034 0.855215 5.010777
23.993338 0.855262 5.132682
23.560862 0.854191 1.152537
23.592209 0.854244 1.299090
23.594074 0.854247 1.479012
23.628599 0.854306 1.619119
23.628170 0.854304 1.798422
23.644947 0.854333 1.956257
23.650091 0.854341 2.125850
23.659412 0.854357 2.289130
23.694372 0.854416 2.422354
23.709703 0.854442 2.576256
23.737522 0.854489 2.715155
23.740057 0.854493 2.880393
23.744213 0.854499 3.042354
23.769192 0.854542 3.180652
23.793297 0.854582 3.318809
23.799959 0.854593 3.474171
23.805605 0.854603 3.629236
23.838110 0.854658 3.755310
23.850254 0.854678 3.901312
23.867086 0.854707 4.041383
23.883032 0.854733 4.181257
23.895262 0.854754 4.323745
23.903736 0.854768 4.468809
23.931318 0.854815 4.594046
23.963894 0.854870 4.713626
23.964020 0.854870 4.863623
23.963179 0.854868 5.013290
23.981743 0.854900 5.143413
23.984900 0.854905 5.287032
23.573679 0.854950 1.137329
23.587025 0.854973 1.305331
23.596645 0.854990 1.476095
23.628576 0.855045 1.619248
23.630766 0.855048 1.795529
23.650188 0.855081 1.950366
23.652710 0.855085 2.122982
23.670025 0.855115 2.277311
23.680979 0.855134 2.437363
23.698931 0.855165 2.588243
23.721298 0.855203 2.732999
23.745451 0.855245 2.874640
23.757803 0.855266 3.027840
23.788321 0.855318 3.160364
23.790514 0.855322 3.321843
23.808214 0.855352 3.465622
23.830547 0.855391 3.603439
23.868740 0.855457 3.723887
23.844616 0.855414 3.907155
23.861422 0.855443 4.047202
23.891470 0.855495 4.172891
23.915085 0.855536 4.304140
23.932194 0.855565 4.440868
23.925554 0.855553 4.599766
23.943735 0.855585 4.733231
23.952435 0.855599 4.874831
23.966034 0.855623 5.010663
23.984608 0.855655 5.140800
23.990700 0.855665 5.281701
23.563293 0.857390 1.149080
23.586914 0.857433 1.304812
23.612104 0.857480 1.457307
23.633690 0.857519 1.612661
23.635910 0.857523 1.788963
23.655361 0.857558 1.943823
23.657915 0.857562 2.116462
23.669937 0.857584 2.276790
23.704952 0.857648 2.410058
23.714964 0.857666 2.569936
23.721222 0.857677 2.732476
23.745377 0.857722 2.874117
23.757734 0.857744 3.027317
23.771828 0.857769 3.177342
23.790451 0.857803 3.321320
23.819202 0.857856 3.453528
23.824940 0.857866 3.608676
23.843597 0.857900 3.749177
23.852966 0.857917 3.898060
23.878252 0.857963 4.029612
23.882950 0.857972 4.180862
23.903694 0.858010 4.314892
23.917910 0.858035 4.454377
23.939831 0.858075 4.585265
23.943705 0.858082 4.732704
23.949520 0.858093 4.877073
23.977602 0.858144 4.999108
23.987497 0.858162 5.137527
23.981916 0.858151 5.289366
23.570759 0.862610 1.138864
23.578943 0.862627 1.312966
23.604099 0.862678 1.465426
23.636080 0.862744 1.608611
23.617357 0.862705 1.809104
23.641991 0.862755 1.957860
23.647135 0.862765 2.127441
23.675070 0.862822 2.269795
23.680716 0.862834 2.435823
23.704048 0.862881 2.580772
23.721056 0.862916 2.731456
23.742504 0.862960 2.876038
23.754856 0.862985 3.029225
23.774418 0.863025 3.173404
23.782063 0.863041 3.329010
23.805258 0.863088 3.466967
23.819262 0.863117 3.613413
23.840689 0.863160 3.751020
23.858452 0.863197 3.891322
23.880955 0.863243 4.025741
23.896975 0.863275 4.165674
23.895088 0.863271 4.322321
23.920670 0.863324 4.450541
23.928301 0.863339 4.595416
23.932135 0.863347 4.742802
23.963879 0.863412 4.862195
23.945658 0.863374 5.028405
23.978708 0.863442 5.144729
23.558025 0.858411 1.153130
23.586794 0.858465 1.302726
23.624968 0.858536 1.439993
23.625776 0.858538 1.619671
23.635834 0.858556 1.786872
23.660566 0.858602 1.935709
23.660515 0.858602 2.111369
23.680544 0.858639 2.262744
23.683552 0.858645 2.431771
23.698849 0.858673 2.585624
23.732027 0.858735 2.718568
23.737267 0.858745 2.880840
23.755049 0.858778 3.028145
23.771881 0.858809 3.175238
23.796017 0.858854 3.313403
23.827568 0.858914 3.442740
23.808382 0.858877 3.623853
23.838127 0.858933 3.752805
23.858686 0.858971 3.890237
23.875570 0.859003 4.030343
23.902868 0.859054 4.158924
23.901016 0.859050 4.315596
23.923779 0.859093 4.446646
23.934290 0.859112 4.588736
23.941029 0.859124 4.733366
23.961273 0.859162 4.863874
23.963333 0.859166 5.010772
23.993551 0.859222 5.129915
23.999697 0.859234 5.270852
23.575825 0.861766 1.130608
23.591793 0.861798 1.295563
23.604061 0.861823 1.463303
23.633448 0.861882 1.609518
23.635693 0.861886 1.785821
23.644632 0.861904 1.952722
23.663036 0.861941 2.107317
23.669788 0.861954 2.273642
23.683441 0.861981 2.430717
23.706800 0.862028 2.575674
23.721136 0.862057 2.729322
23.726332 0.862067 2.891548
23.760414 0.862136 3.021229
23.771807 0.862159 3.174180
23.790447 0.862196 3.318155
23.802647 0.862220 3.467718
23.830526 0.862276 3.599744
23.835293 0.862286 3.754612
23.853045 0.862321 3.894887
23.861473 0.862338 4.043503
23.900017 0.862416 4.160691
23.900993 0.862418 4.314531
23.912367 0.862440 4.456810
23.928558 0.862473 4.593262
23.958267 0.862533 4.715606
23.949736 0.862515 4.873886
23.972038 0.862560 5.001432
23.999386 0.862615 5.123358
23.993872 0.862603 5.275248
23.568171 0.859855 1.139318
23.578941 0.859876 1.310352
23.596333 0.859909 1.471945
23.620470 0.859956 1.624193
23.633131 0.859980 1.788350
23.631531 0.859976 1.967282
23.657812 0.860027 2.112821
23.672520 0.860055 2.270158
23.688862 0.860087 2.424267
23.714933 0.860137 2.566286
23.732010 0.860170 2.717015
23.742683 0.860190 2.873405
23.755053 0.860214 3.026590
23.771896 0.860246 3.173683
23.798790 0.860298 3.308941
23.816553 0.860333 3.452754
23.833401 0.860365 3.596364
23.840969 0.860379 3.748375
23.833551 0.860365 3.914386
23.867208 0.860430 4.037313
23.883179 0.860460 4.177185
23.912457 0.860517 4.302752
23.912485 0.860517 4.456309
23.917234 0.860526 4.603940
23.949772 0.860589 4.723451
23.964289 0.860617 4.859536
23.960577 0.860609 5.011961
23.990789 0.860668 5.131089
23.991089 0.860668 5.277478
23.565485 0.862807 1.142222
23.591726 0.862861 1.294904
23.588440 0.862854 1.480915
23.615143 0.862909 1.630096
23.614679 0.862908 1.809341
23.644587 0.862969 1.952061
23.668287 0.863018 2.100658
23.688370 0.863059 2.252064
23.696772 0.863076 2.415173
23.706774 0.863097 2.575011
23.726509 0.863137 2.722753
23.734447 0.863153 2.882060
23.765848 0.863218 3.014706
23.763586 0.863213 3.182268
23.795942 0.863279 3.311679
23.799881 0.863287 3.469946
23.838852 0.863368 3.590435
23.821363 0.863331 3.768291
23.861454 0.863414 3.885649
23.872738 0.863437 4.031456
23.885910 0.863464 4.174185
23.903852 0.863501 4.311043
23.926638 0.863547 4.442104
23.942896 0.863581 4.578616
23.932442 0.863559 4.739978
23.961315 0.863618 4.862137
23.969183 0.863634 5.003519
23.970337 0.863636 5.150133
23.993923 0.863685 5.274577
23.990364 0.863677 5.423378
23.570768 0.858085 1.135580
23.594460 0.858129 1.291341
23.601564 0.858142 1.465182
23.628338 0.858191 1.614419
23.633184 0.858200 1.787678
23.636852 0.858207 1.960588
23.668457 0.858265 2.100150
23.680563 0.858288 2.260521
23.683586 0.858293 2.429547
23.709641 0.858341 2.571539
23.726694 0.858373 2.722245
23.734636 0.858387 2.881551
23.744247 0.858405 3.037630
23.766516 0.858446 3.178842
23.787891 0.858486 3.319885
23.805607 0.858519 3.463648
23.833508 0.858570 3.595685
23.827145 0.858558 3.762043
23.850468 0.858601 3.896566
23.872952 0.858643 4.030944
23.903074 0.858699 4.156678
23.895563 0.858685 4.318990
23.901218 0.858695 4.466860
23.945982 0.858778 4.575308
23.949913 0.858785 4.722768
23.955778 0.858796 4.867162
23.981009 0.858843 4.991976
23.985125 0.858850 5.135895
23.565536 0.857280 1.139031
23.584059 0.857314 1.300880
23.593725 0.857331 1.471630
23.620478 0.857380 1.620829
23.627926 0.857393 1.791030
23.650019 0.857434 1.942837
23.660538 0.857453 2.106451
23.667303 0.857465 2.272764
23.688988 0.857504 2.420893
23.712399 0.857547 2.565872
23.729483 0.857578 2.716587
23.740168 0.857597 2.872963
23.763441 0.857639 3.014416
23.761189 0.857635 3.181968
23.793550 0.857694 3.311362
23.800262 0.857706 3.466722
23.830929 0.857762 3.595850
23.844082 0.857786 3.742109
23.864695 0.857823 3.879560
23.867577 0.857828 4.033912
23.892042 0.857873 4.165282
23.910028 0.857905 4.302164
23.921461 0.857926 4.444478
23.937714 0.857956 4.580963
23.935877 0.857952 4.733953
23.959011 0.857994 4.861660
23.972679 0.858019 4.997513
23.994230 0.858058 5.124924
23.580923 0.855688 1.119140
23.584059 0.855693 1.299397
23.617073 0.855751 1.442734
23.617893 0.855752 1.622378
23.630577 0.855774 1.786520
23.642162 0.855794 1.950384
23.655300 0.855817 2.110963
23.678003 0.855857 2.259321
23.689062 0.855876 2.419403
23.693689 0.855884 2.585136
23.716089 0.855923 2.729861
23.732138 0.855951 2.880295
23.752661 0.855987 3.024641
23.766785 0.856012 3.174638
23.793682 0.856059 3.309866
23.811453 0.856090 3.453650
23.817209 0.856100 3.608760
23.838669 0.856137 3.746349
23.864864 0.856183 3.878058
23.881811 0.856213 4.018186
23.900703 0.856246 4.155281
23.901716 0.856247 4.309121
23.924517 0.856287 4.440165
23.917904 0.856275 4.599027
23.944721 0.856322 4.724097
23.967901 0.856363 4.851840
23.964231 0.856356 5.004280
23.985756 0.856394 5.131650
23.988981 0.856399 5.275281
23.568008 0.856326 1.133186
23.591722 0.856368 1.288930
23.598856 0.856380 1.462759
23.617836 0.856414 1.621080
23.635769 0.856446 1.779175
23.628962 0.856433 1.964144
23.665852 0.856499 2.097664
23.683300 0.856530 2.252043
23.699736 0.856559 2.406195
23.717846 0.856591 2.557147
23.726885 0.856607 2.716744
23.740284 0.856631 2.870166
23.758129 0.856662 3.017476
23.772289 0.856687 3.167494
23.796473 0.856731 3.305651
23.814262 0.856762 3.449448
23.825588 0.856782 3.598805
23.841520 0.856810 3.742168
23.859339 0.856842 3.882463
23.881893 0.856882 4.016873
23.903614 0.856921 4.151135
23.915995 0.856943 4.293704
23.924622 0.856958 4.438850
23.935183 0.856977 4.580936
23.947714 0.856999 4.719998
23.962259 0.857024 4.856066
23.967266 0.857033 5.000203
23.560238 0.856784 1.141244
23.583920 0.856826 1.296954
23.611763 0.856877 1.446380
23.617790 0.856887 1.619930
23.635729 0.856919 1.778024
23.647358 0.856940 1.941911
23.657894 0.856959 2.105512
23.672653 0.856985 2.262844
23.697058 0.857029 2.408018
23.704426 0.857042 2.570819
23.724195 0.857078 2.718543
23.734882 0.857097 2.874893
23.755432 0.857134 3.019250
23.766850 0.857154 3.172174
23.799259 0.857213 3.301586
23.811548 0.857235 3.451181
23.825642 0.857260 3.597645
23.836010 0.857278 3.746747
23.834217 0.857275 3.907020
23.873537 0.857346 4.024245
23.886755 0.857369 4.166970
23.910412 0.857412 4.298180
23.927565 0.857443 4.434876
23.926704 0.857441 4.588159
23.942081 0.857469 4.724398
23.959494 0.857500 4.857668
23.973186 0.857524 4.993519
23.991850 0.857558 5.123672
23.989275 0.857553 5.272793
23.565308 0.858015 1.134776
23.581284 0.858044 1.299678
23.598745 0.858077 1.461277
23.628157 0.858131 1.607459
23.625200 0.858125 1.789785
23.639414 0.858151 1.950612
23.657848 0.858185 2.105178
23.675268 0.858218 2.259521
23.694345 0.858253 2.410660
23.704388 0.858271 2.570484
23.732250 0.858323 2.709347
23.732136 0.858322 2.877500
23.749952 0.858355 3.024774
23.769558 0.858392 3.168919
23.799232 0.858447 3.301250
23.800476 0.858449 3.462422
23.822844 0.858490 3.600190
23.844347 0.858530 3.737800
23.853790 0.858547 3.886678
23.879141 0.858594 4.018218
23.886738 0.858608 4.166632
23.890549 0.858615 4.317589
23.910465 0.858652 4.451390
23.943859 0.858714 4.571045
23.939201 0.858705 4.726842
23.965256 0.858753 4.851789
23.967390 0.858757 4.998697
23.974396 0.858769 5.139807
23.991606 0.858801 5.415791
23.578238 0.854995 1.119219
23.594282 0.855023 1.284178
23.604034 0.855039 1.454971
23.612629 0.855054 1.625454
23.612213 0.855053 1.804688
23.636889 0.855095 1.953412
23.655313 0.855127 2.107964
23.680695 0.855171 2.253330
23.705145 0.855213 2.398537
23.707186 0.855216 2.567305
23.732367 0.855259 2.709133
23.745806 0.855282 2.862575
23.752794 0.855294 3.021629
23.775146 0.855333 3.162869
23.793856 0.855365 3.306849
23.817165 0.855405 3.444842
23.828516 0.855424 3.594212
23.847258 0.855457 3.734716
23.859514 0.855478 3.880749
23.873646 0.855502 4.023693
23.875576 0.855505 4.177749
23.899185 0.855546 4.308911
23.927687 0.855595 4.434322
23.912527 0.855568 4.601584
23.945082 0.855624 4.721060
23.968279 0.855664 4.848800
23.953043 0.855638 5.012273
23.977444 0.855680 5.136845
23.565254 0.858385 1.133906
23.583813 0.858420 1.295750
23.606480 0.858462 1.451268
23.625517 0.858498 1.609621
23.630411 0.858506 1.782866
23.655184 0.858553 1.931667
23.655186 0.858552 2.107304
23.675257 0.858590 2.258647
23.699682 0.858635 2.403831
23.701706 0.858639 2.572574
23.734955 0.858701 2.705516
23.734861 0.858700 2.873682
23.739082 0.858708 3.035617
23.777786 0.858781 3.159287
23.791016 0.858805 3.309091
23.803272 0.858828 3.458649
23.828432 0.858875 3.593547
23.841606 0.858899 3.739790
23.853842 0.858922 3.885798
23.876387 0.858964 4.020182
23.895273 0.858999 4.157248
23.899122 0.859006 4.308244
23.916235 0.859038 4.444888
23.941076 0.859085 4.572956
23.936415 0.859076 4.728742
23.968233 0.859135 4.848131
23.981966 0.859161 4.984020
23.980314 0.859157 5.133430
23.998142 0.859190 5.263370
23.567837 0.856097 1.129389
23.596735 0.856148 1.279015
23.606514 0.856166 1.449819
23.633379 0.856213 1.599066
23.638323 0.856222 1.772345
23.636824 0.856219 1.951302
23.668486 0.856275 2.090851
23.672686 0.856282 2.260183
23.689095 0.856311 2.414285
23.707180 0.856343 2.565188
23.729675 0.856382 2.709968
23.734987 0.856392 2.872225
23.755554 0.856428 3.016579
23.769728 0.856453 3.166582
23.793919 0.856496 3.304724
23.795155 0.856498 3.465871
23.828606 0.856557 3.592084
23.841789 0.856580 3.738326
23.865229 0.856622 3.872900
23.887831 0.856662 4.007331
23.889835 0.856665 4.161448
23.910685 0.856702 4.295491
23.916464 0.856712 4.443419
23.935593 0.856746 4.577078
23.945276 0.856763 4.718921
23.971371 0.856809 4.843888
23.973541 0.856813 4.990823
23.992220 0.856846 5.120973
23.992582 0.856846 5.267362
23.997875 0.856855 5.407990
23.570217 0.858473 1.124308
23.591408 0.858512 1.283116
23.595993 0.858521 1.459989
23.622818 0.858571 1.609189
23.632959 0.858589 1.776375
23.649876 0.858621 1.934221
23.665747 0.858651 2.091830
23.677919 0.858673 2.252183
23.691698 0.858699 2.409285
23.731279 0.858773 2.536470
23.721546 0.858754 2.716803
23.729542 0.858769 2.876082
23.747374 0.858802 3.023341
23.769728 0.858844 3.164551
23.793930 0.858890 3.302691
23.800703 0.858902 3.458049
23.831417 0.858960 3.587164
23.841841 0.858979 3.736289
23.845703 0.858986 3.890870
23.887907 0.859065 4.005291
23.884277 0.859058 4.165076
23.907949 0.859102 4.296270
23.930817 0.859145 4.427330
23.924278 0.859132 4.586220
23.931055 0.859145 4.730796
23.945562 0.859172 4.866784
23.973703 0.859225 4.988774
23.998213 0.859271 5.113431
23.562546 0.856434 1.132504
23.573393 0.856453 1.303508
23.598625 0.856498 1.455929
23.612444 0.856523 1.620316
23.619925 0.856536 1.790478
23.649937 0.856589 1.933205
23.649946 0.856589 2.108819
23.662048 0.856610 2.269103
23.683769 0.856649 2.417201
23.712584 0.856701 2.556213
23.713552 0.856702 2.724648
23.743193 0.856755 2.860351
23.747484 0.856762 3.022321
23.775312 0.856812 3.157694
23.788559 0.856836 3.307482
23.814636 0.856882 3.442552
23.820459 0.856892 3.597673
23.841982 0.856931 3.735265
23.859844 0.856963 3.875554
23.874008 0.856988 4.018495
23.870327 0.856981 4.178218
23.896778 0.857028 4.306528
23.925295 0.857079 4.431921
23.941618 0.857108 4.568411
23.936987 0.857100 4.724198
23.968830 0.857157 4.843580
23.979696 0.857176 4.982226
23.995508 0.857204 5.115145
23.575111 0.861706 1.115691
23.588610 0.861733 1.283693
23.616528 0.861789 1.433132
23.617426 0.861791 1.612775
23.619705 0.861795 1.789009
23.641834 0.861839 1.940772
23.662973 0.861882 2.092342
23.672493 0.861901 2.255671
23.694275 0.861944 2.403815
23.709732 0.861975 2.557704
23.724180 0.862004 2.711354
23.743044 0.862042 2.858873
23.747345 0.862050 3.020843
23.786123 0.862128 3.144537
23.780197 0.862116 3.314722
23.809006 0.862174 3.446859
23.817587 0.862191 3.599072
23.850248 0.862257 3.725169
23.859762 0.862276 3.874069
23.879557 0.862315 4.011317
23.887199 0.862331 4.159729
23.896723 0.862350 4.305041
23.930944 0.862418 4.424812
23.950161 0.862457 4.558529
23.959934 0.862476 4.700434
23.965923 0.862488 4.844862
23.979685 0.862516 4.980733
23.978060 0.862512 5.130131
23.995911 0.862548 5.260052
23.554691 0.859255 1.140514
23.570660 0.859286 1.305369
23.603666 0.859349 1.448635
23.633148 0.859405 1.594831
23.640745 0.859419 1.765085
23.641926 0.859421 1.941041
23.657774 0.859451 2.098613
23.667263 0.859469 2.261921
23.689018 0.859510 2.410040
23.715181 0.859560 2.552042
23.735048 0.859598 2.699805
23.724159 0.859577 2.879742
23.755590 0.859637 3.012321
23.780729 0.859685 3.150647
23.788515 0.859699 3.306273
23.795277 0.859712 3.461606
23.814886 0.859749 3.602226
23.841961 0.859801 3.734052
23.859829 0.859835 3.874341
23.859949 0.859835 4.031513
23.884441 0.859882 4.162835
23.888281 0.859889 4.313779
23.916769 0.859943 4.439132
23.935923 0.859979 4.572787
23.937019 0.859981 4.722980
23.948679 0.860003 4.861765
23.968157 0.860040 4.992042
23.978113 0.860059 5.130404
23.995962 0.860093 5.260325
23.559738 0.860947 1.133876
23.588627 0.861005 1.283462
23.606178 0.861039 1.445089
23.617447 0.861061 1.612544
23.635439 0.861097 1.770632
23.644489 0.861114 1.937527
23.662998 0.861151 2.092110
23.667204 0.861159 2.261420
23.688963 0.861202 2.409538
23.707079 0.861238 2.560437
23.721518 0.861266 2.714075
23.729532 0.861282 2.873354
23.755547 0.861333 3.011818
23.769753 0.861361 3.161818
23.793972 0.861409 3.299955
23.809046 0.861439 3.446626
23.820400 0.861461 3.595956
23.847504 0.861515 3.727806
23.857008 0.861533 3.876693
23.876791 0.861572 4.013929
23.887247 0.861593 4.159494
23.910948 0.861640 4.290697
23.916758 0.861651 4.438625
23.935913 0.861689 4.572279
23.942757 0.861702 4.716905
23.957329 0.861731 4.852941
23.976845 0.861769 4.983257
23.989750 0.861795 5.118908
23.995968 0.861807 5.259817
23.569859 0.865714 1.122350
23.591063 0.865760 1.281156
23.587891 0.865753 1.467169
23.625107 0.865834 1.604191
23.630041 0.865845 1.777434
23.641693 0.865870 1.941293
23.662828 0.865916 2.092864
23.656399 0.865901 2.274131
23.675428 0.865943 2.425184
23.704208 0.866006 2.564160
23.724022 0.866049 2.711877
23.740171 0.866084 2.862340
23.749901 0.866105 3.018436
23.769547 0.866147 3.162576
23.774529 0.866158 3.321062
23.808828 0.866233 3.447385
23.817408 0.866251 3.599599
23.841709 0.866304 3.734307
23.848385 0.866319 3.886029
23.879368 0.866386 4.011844
23.881363 0.866390 4.165924
23.910704 0.866454 4.291460
23.930746 0.866498 4.425340
23.932800 0.866502 4.575840
23.936754 0.866511 4.723237
23.951298 0.866542 4.859249
23.967890 0.866578 4.992299
23.983662 0.866612 5.125166
23.562233 0.862523 1.130581
23.575670 0.862550 1.298526
23.587975 0.862575 1.466191
23.622591 0.862646 1.606246
23.635376 0.862672 1.770404
23.631273 0.862663 1.952364
23.660294 0.862723 2.094883
23.669806 0.862742 2.258203
23.686235 0.862775 2.412289
23.712391 0.862829 2.554277
23.710678 0.862825 2.725667
23.748446 0.862902 2.852526
23.766386 0.862939 2.999865
23.772438 0.862951 3.158671
23.782936 0.862972 3.311353
23.806240 0.863020 3.449292
23.820358 0.863048 3.595727
23.822395 0.863052 3.753413
23.862564 0.863135 3.870745
23.879562 0.863169 4.010853
23.878742 0.863167 4.167766
23.916582 0.863245 4.284824
23.922417 0.863257 4.432776
23.913004 0.863237 4.594425
23.942724 0.863298 4.716675
23.968834 0.863351 4.841622
23.968128 0.863349 4.991303
23.975180 0.863364 5.132411
23.574881 0.866505 1.114545
23.593544 0.866546 1.276429
23.605946 0.866573 1.444173
23.609404 0.866581 1.620734
23.640453 0.866649 1.763667
23.633751 0.866634 1.948661
23.660147 0.866692 2.094192
23.682947 0.866743 2.242562
23.688768 0.866755 2.408618
23.706890 0.866795 2.559516
23.724030 0.866833 2.710199
23.734776 0.866857 2.866546
23.747211 0.866884 3.019688
23.755913 0.866903 3.175491
23.780079 0.866957 3.313565
23.808893 0.867020 3.445701
23.809164 0.867021 3.606563
23.852934 0.867118 3.721137
23.868065 0.867151 3.864331
23.873854 0.867164 4.015847
23.873013 0.867161 4.172737
23.899488 0.867220 4.301056
23.930883 0.867290 4.423647
23.924370 0.867275 4.582538
23.954144 0.867341 4.704836
23.951466 0.867334 4.857554
23.985443 0.867410 4.974047
23.986757 0.867412 5.120723
23.998810 0.867439 5.256151
23.572378 0.863935 1.116960
23.588455 0.863969 1.281891
23.608610 0.864011 1.440470
23.619900 0.864035 1.607936
23.624826 0.864045 1.781156
23.649624 0.864097 1.929927
23.662882 0.864125 2.090534
23.675074 0.864150 2.250873
23.683527 0.864168 2.413918
23.706995 0.864217 2.558858
23.713356 0.864230 2.721360
23.715925 0.864235 2.886488
23.750051 0.864307 3.016097
23.780647 0.864372 3.148559
23.793940 0.864399 3.298370
23.792463 0.864396 3.462411
23.823162 0.864461 3.591486
23.847502 0.864512 3.726217
23.859814 0.864538 3.872245
23.868380 0.864555 4.020877
23.890099 0.864601 4.155067
23.908150 0.864639 4.291927
23.916805 0.864657 4.437031
23.927393 0.864679 4.579076
23.937080 0.864699 4.720878
23.963171 0.864754 4.845801
23.971138 0.864771 4.987177
23.992750 0.864816 5.114563
23.998486 0.864828 5.401578
23.577497 0.863931 1.110611
23.596182 0.863970 1.272506
23.606012 0.863990 1.443307
23.612082 0.864003 1.616832
23.627441 0.864035 1.777922
23.628574 0.864037 1.953819
23.644371 0.864070 2.111333
23.667101 0.864118 2.259633
23.691542 0.864169 2.404772
23.698948 0.864185 2.567548
23.721449 0.864232 2.712283
23.737604 0.864266 2.862733
23.752781 0.864297 3.012954
23.775188 0.864345 3.154186
23.788458 0.864372 3.303972
23.809036 0.864416 3.444827
23.831495 0.864463 3.582623
23.841948 0.864485 3.731746
23.862629 0.864528 3.869172
23.885258 0.864576 4.003584
23.861893 0.864526 4.183198
23.902500 0.864611 4.297357
23.913980 0.864635 4.439627
23.930275 0.864670 4.576066
23.951462 0.864714 4.706741
23.974731 0.864763 4.834498
23.982748 0.864780 4.975927
23.989872 0.864794 5.117096
23.567165 0.865477 1.122515
23.590952 0.865529 1.278249
23.598167 0.865544 1.452074
23.630245 0.865614 1.595208
23.640467 0.865636 1.762425
23.649561 0.865655 1.929341
23.660177 0.865678 2.092949
23.672361 0.865704 2.253276
23.688816 0.865740 2.407374
23.714996 0.865797 2.549372
23.724096 0.865816 2.708953
23.742975 0.865857 2.856471
23.747293 0.865866 3.018440
23.764208 0.865903 3.165486
23.788418 0.865955 3.303595
23.806238 0.865994 3.447345
23.823141 0.866030 3.590896
23.836346 0.866059 3.737110
23.848612 0.866085 3.883089
23.865561 0.866122 4.023132
23.890093 0.866175 4.154476
23.905312 0.866208 4.294157
23.919653 0.866239 4.433629
23.915960 0.866231 4.589672
23.945704 0.866295 4.711931
23.960300 0.866327 4.847979
23.976946 0.866363 4.981065
23.992769 0.866397 5.113969
23.554214 0.868404 1.137519
23.585674 0.868477 1.284021
23.613596 0.868541 1.433444
23.622314 0.868560 1.603969
23.640350 0.868602 1.762078
23.644186 0.868610 1.935020
23.657423 0.868640 2.095604
23.677567 0.868686 2.246950
23.696720 0.868730 2.398092
23.706844 0.868753 2.557924
23.726692 0.868799 2.705651
23.748295 0.868848 2.850236
23.749920 0.868852 3.015161
23.772318 0.868903 3.156378
23.799314 0.868965 3.291616
23.800629 0.868968 3.452787
23.836918 0.869051 3.576129
23.847399 0.869075 3.725277
23.848528 0.869077 3.882739
23.879528 0.869149 4.008550
23.870256 0.869127 4.173966
23.908070 0.869214 4.290984
23.930967 0.869266 4.422039
23.938763 0.869284 4.566943
23.942762 0.869293 4.714365
23.954464 0.869320 4.853172
23.973984 0.869365 4.983472
23.983984 0.869387 5.121857
23.993116 0.869408 5.260005
23.569584 0.868940 1.119086
23.585655 0.868977 1.284006
23.585073 0.868976 1.466949
23.622295 0.869062 1.603954
23.640333 0.869104 1.762063
23.633642 0.869088 1.947058
23.660048 0.869149 2.092587
23.669577 0.869171 2.255905
23.699373 0.869240 2.395099
23.704142 0.869250 2.560875
23.718586 0.869284 2.714499
23.740149 0.869334 2.859050
23.760788 0.869381 3.003421
23.780502 0.869427 3.147606
23.796551 0.869464 3.294508
23.819929 0.869518 3.432505
23.828583 0.869538 3.584765
23.839027 0.869562 3.733875
23.865295 0.869623 3.865570
23.868273 0.869629 4.019921
23.889996 0.869680 4.154110
23.913723 0.869735 4.285324
23.911020 0.869728 4.441693
23.941605 0.869799 4.564130
23.937002 0.869788 4.719919
23.960215 0.869842 4.847613
23.962383 0.869846 4.994496
23.989782 0.869910 5.116348
23.998938 0.869931 5.254522
23.561810 0.870134 1.127591
23.588160 0.870196 1.280242
23.595369 0.870213 1.454055
23.622232 0.870276 1.603248
23.637655 0.870313 1.764381
23.644115 0.870328 1.934299
23.662645 0.870371 2.088879
23.674847 0.870400 2.249217
23.691324 0.870439 2.403326
23.712158 0.870488 2.551267
23.726645 0.870522 2.704926
23.740126 0.870554 2.858341
23.752604 0.870584 3.011504
23.780487 0.870650 3.146896
23.796541 0.870687 3.293797
23.806126 0.870710 3.446269
23.820263 0.870743 3.592703
23.844601 0.870801 3.727419
23.859707 0.870837 3.870576
23.871094 0.870863 4.016360
23.878723 0.870881 4.164734
23.899569 0.870930 4.298720
23.919588 0.870978 4.432548
23.927338 0.870996 4.577402
23.928423 0.870998 4.727559
23.951603 0.871053 4.855213
23.971113 0.871099 4.985500
23.998552 0.871164 5.107390
23.998989 0.871165 5.253804
23.564402 0.867497 1.123020
23.585617 0.867545 1.281797
23.603191 0.867585 1.443408
23.609268 0.867598 1.616922
23.622019 0.867627 1.781023
23.657347 0.867706 1.917725
23.657448 0.867706 2.093374
23.680262 0.867758 2.241728
23.691435 0.867783 2.401815
23.704229 0.867811 2.558656
23.724079 0.867856 2.706368
23.742975 0.867899 2.853884
23.760920 0.867939 3.001195
23.777916 0.867977 3.148298
23.780230 0.867982 3.309725
23.800787 0.868028 3.450543
23.823225 0.868079 3.588300
23.842016 0.868121 3.728770
23.859917 0.868162 3.869054
23.879742 0.868206 4.006298
23.887417 0.868223 4.154708
23.911146 0.868277 4.285906
23.908447 0.868270 4.442263
23.933311 0.868327 4.570280
23.940174 0.868342 4.714891
23.969179 0.868407 4.837049
23.971397 0.868412 4.983971
23.987213 0.868448 5.116848
23.999290 0.868475 5.252273
23.569481 0.869213 1.117155
23.593300 0.869269 1.272897
23.592772 0.869267 1.455875
23.630047 0.869354 1.592911
23.627195 0.869347 1.775250
23.630981 0.869355 1.948135
23.660028 0.869423 2.090649
23.677542 0.869464 2.244995
23.694040 0.869502 2.399114
23.688066 0.869488 2.576734
23.729401 0.869584 2.700737
23.742905 0.869615 2.854162
23.766291 0.869670 2.995610
23.761435 0.869658 3.166095
23.782900 0.869708 3.307096
23.795189 0.869736 3.456613
23.823145 0.869802 3.588579
23.833578 0.869826 3.737664
23.854239 0.869874 3.875051
23.876846 0.869926 4.009424
23.890154 0.869957 4.152152
23.894051 0.869966 4.303120
23.905510 0.869992 4.445353
23.933220 0.870057 4.570561
23.937208 0.870066 4.717957
23.960432 0.870120 4.845649
23.968407 0.870138 4.987011
23.984209 0.870175 5.119875
23.564350 0.867514 1.121962
23.590729 0.867573 1.274620
23.595381 0.867583 1.451491
23.606636 0.867608 1.618899
23.642937 0.867690 1.755763
23.638920 0.867681 1.937756
23.652153 0.867711 2.098316
23.669636 0.867750 2.252626
23.691444 0.867799 2.400751
23.698881 0.867816 2.563526
23.716017 0.867854 2.714169
23.737589 0.867903 2.858704
23.739187 0.867906 3.023581
23.767021 0.867969 3.158910
23.777534 0.867992 3.311564
23.803604 0.868051 3.446578
23.826063 0.868102 3.584346
23.828163 0.868106 3.742057
23.865589 0.868191 3.862262
23.868589 0.868197 4.016613
23.893154 0.868253 4.147963
23.914078 0.868300 4.282009
23.925631 0.868326 4.424327
23.939140 0.868356 4.563609
23.937420 0.868352 4.716600
23.975067 0.868437 4.830427
23.988899 0.868468 4.966333
23.978628 0.868445 5.124012
23.571949 0.869078 1.111997
23.580332 0.869097 1.286101
23.587528 0.869114 1.459880
23.614370 0.869176 1.609036
23.637630 0.869230 1.761057
23.644115 0.869245 1.930974
23.646807 0.869251 2.103563
23.666924 0.869297 2.254860
23.683384 0.869335 2.408931
23.722980 0.869428 2.536063
23.729452 0.869442 2.698634
23.740261 0.869467 2.855001
23.752764 0.869496 3.008163
23.786137 0.869574 3.137709
23.802235 0.869611 3.284633
23.806349 0.869620 3.442920
23.823278 0.869659 3.586468
23.842081 0.869703 3.726936
23.854401 0.869731 3.872937
23.871401 0.869771 4.013001
23.898806 0.869834 4.141530
23.894251 0.869823 4.301002
23.917109 0.869877 4.431992
23.924870 0.869894 4.576833
23.948931 0.869950 4.704695
23.946268 0.869944 4.857388
23.965775 0.869989 4.987648
23.972857 0.870005 5.128739
23.999479 0.870067 5.250427
23.999002 0.870066 5.396521
23.569462 0.866981 1.115083
23.588140 0.867022 1.276941
23.605740 0.867061 1.438563
23.619658 0.867092 1.602978
23.635092 0.867127 1.764097
23.659975 0.867182 1.912909
23.662746 0.867188 2.085567
23.685596 0.867239 2.233943
23.688801 0.867246 2.402988
23.701597 0.867274 2.559816
23.724138 0.867325 2.704560
23.732214 0.867342 2.863848
23.755562 0.867394 3.005248
23.769810 0.867426 3.155244
23.788576 0.867468 3.299189
23.806425 0.867508 3.442936
23.831673 0.867564 3.577832
23.836590 0.867575 3.732695
23.846085 0.867596 3.881531
23.871477 0.867653 4.013018
23.896059 0.867707 4.144381
23.911331 0.867741 4.284082
23.914339 0.867748 4.434818
23.927803 0.867778 4.574051
23.946135 0.867819 4.707496
23.946342 0.867819 4.857404
23.980326 0.867895 4.973863
23.990374 0.867917 5.112271
23.996634 0.867931 5.253178
23.564228 0.867716 1.119600
23.577738 0.867747 1.287551
23.603067 0.867804 1.439982
23.616983 0.867836 1.604386
23.642881 0.867894 1.753393
23.649405 0.867909 1.923332
23.667995 0.867951 2.077932
23.661665 0.867936 2.259224
23.683449 0.867985 2.407313
23.704277 0.868032 2.555214
23.732235 0.868096 2.694058
23.740358 0.868114 2.853380
23.766476 0.868173 2.991881
23.769852 0.868180 3.153605
23.794121 0.868235 3.291733
23.809246 0.868269 3.438398
23.834517 0.868327 3.573303
23.850592 0.868363 3.716693
23.871349 0.868410 3.854150
23.880009 0.868429 4.002830
23.890530 0.868453 4.148402
23.911455 0.868500 4.282433
23.923010 0.868526 4.424737
23.959393 0.868609 4.541622
23.943419 0.868572 4.708629
23.969572 0.868631 4.833567
23.966024 0.868623 4.986010
23.984743 0.868665 5.116110
23.979313 0.868653 5.267931
23.559034 0.869286 1.125565
23.587980 0.869353 1.275140
23.587460 0.869352 1.458096
23.627335 0.869445 1.592066
23.634972 0.869462 1.762293
23.628304 0.869446 1.947267
23.649433 0.869496 2.098771
23.672234 0.869549 2.247086
23.688732 0.869587 2.401179
23.714951 0.869648 2.543171
23.732180 0.869688 2.693883
23.729473 0.869682 2.864980
23.755539 0.869742 3.003434
23.783468 0.869808 3.138830
23.788578 0.869819 3.297373
23.811958 0.869874 3.435326
23.828924 0.869913 3.578897
23.825487 0.869905 3.742363
23.848930 0.869959 3.876850
23.860298 0.869986 4.022585
23.907415 0.870096 4.131214
23.905745 0.870092 4.287902
23.905891 0.870092 4.441424
23.945059 0.870183 4.555436
23.943380 0.870179 4.708452
23.960884 0.870220 4.841710
23.977566 0.870259 4.974792
23.981798 0.870268 5.118682
23.985119 0.870276 5.262283
23.993383 0.870295 5.400149
23.574362 0.867904 1.104907
23.590519 0.867941 1.269843
23.597799 0.867957 1.443666
23.624723 0.868018 1.592861
23.640213 0.868053 1.754001
23.636219 0.868044 1.935984
23.646833 0.868068 2.099530
23.682913 0.868150 2.232878
23.683464 0.868150 2.404891
23.709673 0.868210 2.546856
23.716112 0.868224 2.709365
23.745838 0.868292 2.845063
23.755672 0.868314 3.001180
23.772680 0.868353 3.148253
23.783249 0.868376 3.300932
23.814890 0.868448 3.430171
23.818029 0.868455 3.588172
23.856318 0.868542 3.708508
23.860334 0.868551 3.863148
23.871769 0.868577 4.008929
23.893553 0.868627 4.143122
23.906004 0.868655 4.285634
23.926090 0.868700 4.419479
23.931055 0.868711 4.567155
23.943682 0.868740 4.706179
23.955433 0.868766 4.844982
23.960527 0.868778 4.989079
23.990862 0.868847 5.108161
23.566589 0.868965 1.113217
23.574980 0.868984 1.287298
23.574417 0.868982 1.470198
23.622055 0.869093 1.594994
23.642771 0.869141 1.750071
23.646688 0.869150 1.923024
23.662647 0.869186 2.080611
23.664282 0.869190 2.252909
23.696779 0.869265 2.389088
23.704283 0.869282 2.551883
23.721481 0.869322 2.702546
23.748531 0.869385 2.841211
23.771988 0.869439 2.982677
23.775410 0.869447 3.144425
23.780508 0.869458 3.302930
23.806623 0.869519 3.437948
23.840216 0.869597 3.564186
23.831284 0.869576 3.733445
23.851973 0.869624 3.870815
23.877419 0.869683 4.002320
23.879486 0.869687 4.156386
23.911716 0.869762 4.279071
23.917601 0.869775 4.426996
23.911102 0.869760 4.585827
23.946611 0.869842 4.702477
23.978559 0.869917 4.821878
23.969282 0.869895 4.979879
23.990940 0.869945 5.107243
23.569319 0.864168 1.109986
23.580305 0.864191 1.281017
23.603081 0.864239 1.436505
23.614416 0.864263 1.603944
23.640329 0.864318 1.752935
23.646862 0.864331 1.922862
23.657537 0.864354 2.086453
23.680395 0.864402 2.234801
23.686279 0.864414 2.400844
23.701782 0.864447 2.554688
23.724356 0.864494 2.699428
23.740589 0.864529 2.849881
23.764008 0.864578 2.991311
23.772861 0.864597 3.147181
23.766960 0.864584 3.317310
23.804050 0.864662 3.440682
23.829317 0.864716 3.575560
23.848173 0.864755 3.716049
23.860550 0.864781 3.862072
23.874800 0.864811 4.005004
23.890961 0.864845 4.144880
23.897739 0.864860 4.293024
23.917793 0.864902 4.426832
23.945595 0.864961 4.552082
23.958288 0.864987 4.691168
23.975872 0.865025 4.824487
23.975269 0.865023 4.974193
23.985325 0.865044 5.112574
23.988674 0.865051 5.256188
23.569246 0.866016 1.109864
23.590538 0.866063 1.268657
23.600418 0.866084 1.439430
23.632570 0.866155 1.582563
23.637642 0.866166 1.755837
23.662573 0.866220 1.904654
23.660110 0.866214 2.083328
23.677671 0.866253 2.237669
23.696890 0.866295 2.388803
23.709761 0.866323 2.545663
23.732376 0.866372 2.690437
23.748650 0.866408 2.840925
23.766665 0.866447 2.988255
23.778265 0.866473 3.141218
23.786121 0.866490 3.296827
23.815023 0.866553 3.428973
23.832029 0.866590 3.572551
23.834194 0.866595 3.730287
23.854898 0.866640 3.867667
23.871933 0.866677 4.007728
23.893724 0.866725 4.141920
23.914684 0.866771 4.275961
23.926275 0.866796 4.418275
23.934107 0.866813 4.563151
23.938143 0.866822 4.710546
23.958527 0.866866 4.841003
23.981005 0.866916 4.968548
23.979460 0.866912 5.117947
23.561596 0.864634 1.118898
23.582850 0.864680 1.277658
23.610821 0.864739 1.427060
23.609186 0.864736 1.609716
23.629839 0.864780 1.764736
23.649471 0.864821 1.919546
23.654875 0.864833 2.089154
23.680378 0.864887 2.234499
23.691605 0.864911 2.394583
23.707130 0.864944 2.548451
23.727041 0.864986 2.696170
23.740582 0.865015 2.849579
23.742239 0.865018 3.014467
23.783789 0.865107 3.135198
23.797165 0.865135 3.285013
23.798532 0.865138 3.446172
23.815460 0.865174 3.589678
23.842609 0.865232 3.721489
23.838182 0.865222 3.884649
23.863571 0.865276 4.016092
23.890970 0.865335 4.144576
23.900583 0.865355 4.289896
23.917807 0.865392 4.426528
23.931316 0.865421 4.565770
23.955433 0.865472 4.693650
23.961479 0.865485 4.838049
23.975288 0.865514 4.973888
23.982437 0.865529 5.115018
23.994535 0.865555 5.250413
23.561607 0.863785 1.118480
23.582863 0.863829 1.277239
23.597889 0.863861 1.441882
23.624826 0.863917 1.591075
23.624628 0.863917 1.770367
23.631090 0.863930 1.940225
23.665474 0.864002 2.076725
23.675098 0.864022 2.240060
23.678293 0.864028 2.409060
23.709850 0.864095 2.545063
23.724386 0.864125 2.698704
23.746040 0.864170 2.843268
23.761326 0.864202 2.993519
23.778372 0.864238 3.140616
23.799961 0.864283 3.281682
23.798588 0.864280 3.445749
23.826603 0.864339 3.577718
23.856588 0.864402 3.706703
23.860617 0.864410 3.861344
23.883295 0.864458 3.995733
23.891037 0.864474 4.144152
23.897820 0.864488 4.292295
23.912186 0.864518 4.431725
23.931393 0.864558 4.565345
23.952641 0.864602 4.696009
23.964441 0.864627 4.834850
23.969582 0.864638 4.978983
23.991243 0.864683 5.106346
23.991705 0.864684 5.252721
23.569275 0.863923 1.108878
23.572538 0.863930 1.289088
23.584921 0.863955 1.456735
23.632620 0.864056 1.581575
23.642931 0.864078 1.748798
23.638971 0.864069 1.930792
23.662825 0.864119 2.079336
23.675095 0.864145 2.239670
23.683630 0.864162 2.402710
23.709852 0.864217 2.544672
23.729778 0.864259 2.692401
23.727093 0.864253 2.863488
23.755896 0.864314 2.998992
23.778383 0.864361 3.140224
23.797230 0.864401 3.284197
23.812397 0.864432 3.430873
23.823851 0.864456 3.580209
23.834337 0.864478 3.729290
23.866234 0.864545 3.855228
23.891750 0.864599 3.986794
23.902351 0.864621 4.132414
23.903519 0.864623 4.286254
23.915068 0.864648 4.428518
23.940002 0.864700 4.556552
23.941198 0.864702 4.706758
23.973129 0.864770 4.826133
23.986992 0.864799 4.962023
23.997101 0.864820 5.100453
23.997589 0.864820 5.246855
23.571836 0.864444 1.106158
23.572535 0.864445 1.289438
23.600454 0.864505 1.438795
23.619595 0.864545 1.597111
23.624603 0.864556 1.770329
23.646843 0.864603 1.922102
23.657522 0.864625 2.085693
23.683043 0.864680 2.231049
23.696953 0.864709 2.388165
23.704464 0.864725 2.550960
23.732447 0.864784 2.689798
23.732479 0.864784 2.857951
23.758583 0.864839 2.996412
23.770151 0.864864 3.149338
23.797194 0.864921 3.284551
23.812359 0.864953 3.431227
23.821039 0.864972 3.583448
23.850998 0.865035 3.712411
23.849413 0.865032 3.872745
23.877659 0.865092 4.001390
23.888195 0.865114 4.146949
23.906300 0.865152 4.283786
23.920706 0.865183 4.423252
23.937088 0.865218 4.559708
23.946880 0.865238 4.701543
23.964422 0.865275 4.834811
23.969563 0.865286 4.978944
23.991224 0.865332 5.106307
23.558863 0.866741 1.120033
23.585270 0.866799 1.272661
23.605497 0.866844 1.431217
23.632484 0.866904 1.580442
23.624489 0.866886 1.768846
23.646740 0.866935 1.920618
23.662716 0.866971 2.078203
23.682959 0.867016 2.229562
23.688875 0.867029 2.395615
23.707083 0.867069 2.546503
23.721617 0.867101 2.700132
23.737852 0.867137 2.850573
23.753111 0.867171 3.000786
23.778326 0.867227 3.139084
23.799925 0.867275 3.280149
23.806837 0.867290 3.435525
23.832130 0.867346 3.570412
23.845446 0.867376 3.716657
23.835455 0.867353 3.885549
23.872074 0.867435 4.005585
23.874134 0.867439 4.159627
23.897852 0.867492 4.290755
23.932148 0.867568 4.410504
23.917152 0.867534 4.577795
23.955570 0.867620 4.691680
23.964510 0.867640 4.833306
23.969662 0.867651 4.977438
23.991331 0.867699 5.104800
23.994720 0.867706 5.248440
23.566490 0.869378 1.111498
23.577473 0.869403 1.282518
23.613194 0.869487 1.422750
23.614183 0.869488 1.602383
23.621792 0.869506 1.772551
23.646652 0.869564 1.921298
23.673193 0.869626 2.066872
23.672241 0.869623 2.242207
23.699446 0.869687 2.384379
23.706976 0.869704 2.547185
