# This PCD file was generated using the MATLAB® pcwrite function
# from Computer Vision Toolbox®.
# .PCD v.7 - Point Cloud Data file format
VERSION .7
FIELDS x y z
SIZE 4 4 4
TYPE F F F
COUNT 1 1 1
WIDTH 1703
HEIGHT 1
VIEWPOINT 0 0 0 1 0 0 0
POINTS 1703
DATA ascii
43.560101 0.892284 9.592427
43.587173 0.892332 9.764569
43.514442 0.892201 9.968519
43.650398 0.892445 10.105227
42.728882 0.889303 1.637079
42.754208 0.889347 1.831683
42.778534 0.889389 2.026123
42.808903 0.889442 2.216595
42.820663 0.889463 2.416360
42.817230 0.889456 2.623315
42.851692 0.889516 2.809509
42.871014 0.889550 3.002976
42.910721 0.889619 3.185327
42.931690 0.889656 3.376682
42.933800 0.889659 3.576807
42.959957 0.889705 3.764185
42.974411 0.889730 3.956711
42.998684 0.889772 4.143792
43.014816 0.889800 4.334191
43.048065 0.889858 4.515840
43.065941 0.889889 4.704222
43.090137 0.889932 4.889069
43.095234 0.889940 5.082112
43.124866 0.889992 5.263345
43.146320 0.890029 5.447775
43.174187 0.890078 5.628846
43.160847 0.890054 5.827433
43.197914 0.890119 6.003428
43.197346 0.890118 6.195110
43.228989 0.890173 6.372526
43.245022 0.890201 6.556054
43.274963 0.890253 6.733351
43.296650 0.890291 6.913618
43.306332 0.890308 7.098244
43.333706 0.890355 7.275319
43.352795 0.890389 7.455254
43.352356 0.890387 7.642265
43.388386 0.890451 7.814781
43.401154 0.890473 7.995768
43.439304 0.890539 8.166878
43.427834 0.890519 8.355890
43.445526 0.890550 8.533696
43.477455 0.890606 8.706037
43.489719 0.890627 8.885015
43.516254 0.890673 9.058620
43.523052 0.890685 9.238660
43.540371 0.890715 9.414692
43.568256 0.890763 9.586860
43.580143 0.890784 9.763993
43.518841 0.890676 9.964245
43.654804 0.890915 10.100962
42.746361 0.887480 1.624242
42.757721 0.887499 1.826635
42.764507 0.887510 2.030650
42.780777 0.887538 2.228647
42.806599 0.887582 2.420762
42.838524 0.887636 2.608991
42.837589 0.887634 2.813787
42.874668 0.887698 2.998010
42.893024 0.887729 3.191295
42.910397 0.887758 3.384377
42.941093 0.887810 3.570095
42.967285 0.887855 3.757502
42.978176 0.887873 3.951816
42.998867 0.887908 4.140652
43.022232 0.887948 4.327597
43.041046 0.887980 4.516119
43.048050 0.887992 4.709551
43.094009 0.888070 4.884243
43.099129 0.888079 5.077301
43.125134 0.888123 5.260196
43.142952 0.888153 5.446255
43.170826 0.888201 5.627306
43.197823 0.888247 5.808287
43.205582 0.888259 5.997108
43.205040 0.888258 6.188822
43.229340 0.888299 6.369369
43.252777 0.888339 6.549826
43.271645 0.888371 6.731708
43.304459 0.888427 6.907450
43.299309 0.888418 7.098056
43.337845 0.888484 7.270683
43.342049 0.888491 7.456450
43.363998 0.888528 7.634785
43.381371 0.888557 7.814455
43.394135 0.888579 7.995409
43.421036 0.888625 8.170649
43.420818 0.888624 8.355465
43.461090 0.888693 8.525098
43.474213 0.888715 8.704201
43.486485 0.888736 8.883161
43.505466 0.888768 9.059362
43.534981 0.888818 9.231609
43.556122 0.888854 9.406415
43.561256 0.888863 9.586191
43.576942 0.888889 9.762052
43.534695 0.888816 9.956170
43.624935 0.888971 10.107430
42.728882 0.886840 1.633513
42.750721 0.886877 1.830044
42.775059 0.886918 2.024464
42.787830 0.886939 2.224406
42.813675 0.886983 2.416550
42.835003 0.887019 2.610409
42.844704 0.887035 2.809636
42.878242 0.887092 2.995727
42.889488 0.887110 3.192665
42.913990 0.887152 3.382123
42.941120 0.887197 3.569646
42.952976 0.887217 3.764145
42.956650 0.887223 3.961913
43.006104 0.887307 4.136718
43.011444 0.887316 4.332326
43.048317 0.887378 4.512247
43.084320 0.887439 4.692153
43.079529 0.887430 4.890508
43.088253 0.887445 5.081841
43.117889 0.887495 5.263039
43.139347 0.887531 5.447436
43.174530 0.887591 5.625241
43.190544 0.887617 5.811034
43.205635 0.887643 5.996656
43.197739 0.887629 6.191504
43.244152 0.887708 6.362710
43.252834 0.887722 6.549373
43.256905 0.887729 6.737331
43.304520 0.887809 6.906997
43.317940 0.887832 7.090169
43.323029 0.887840 7.276113
43.342117 0.887872 7.455997
43.352875 0.887890 7.638646
43.362747 0.887906 7.821110
43.375484 0.887928 8.001982
43.432365 0.888024 8.166028
43.439682 0.888036 8.348147
43.461174 0.888073 8.524643
43.462990 0.888075 8.707765
43.482792 0.888109 8.884030
43.524456 0.888179 9.052374
43.538853 0.888203 9.229865
43.537251 0.888200 9.412329
43.553753 0.888228 9.588250
43.577038 0.888267 9.761596
43.523365 0.888175 9.959387
43.647911 0.888387 10.099730
42.732357 0.888183 1.631807
42.750698 0.888214 1.830283
42.785572 0.888274 2.018965
42.798363 0.888296 2.218953
42.817177 0.888328 2.414906
42.827900 0.888346 2.614382
42.844673 0.888375 2.809875
42.871101 0.888420 2.999637
42.889454 0.888452 3.192904
42.942516 0.888543 3.367925
42.941086 0.888541 3.569885
42.956528 0.888567 3.762611
42.981762 0.888610 3.949848
43.006065 0.888652 4.136959
43.018620 0.888673 4.329114
43.044659 0.888718 4.514197
43.055294 0.888736 4.705951
43.079483 0.888778 4.890749
43.110039 0.888830 5.072101
43.125134 0.888856 5.259985
43.150257 0.888899 5.442782
43.167168 0.888928 5.628712
43.186829 0.888962 5.812874
43.190895 0.888969 6.003231
43.212406 0.889006 6.185477
43.233036 0.889041 6.367606
43.249092 0.889068 6.551149
43.275349 0.889114 6.729980
43.289635 0.889138 6.913251
43.303028 0.889161 7.096358
43.326694 0.889201 7.274883
43.345787 0.889234 7.454785
43.367748 0.889272 7.633135
43.381382 0.889295 7.814244
43.401638 0.889330 7.992387
43.417301 0.889357 8.171825
43.443378 0.889402 8.347017
43.457344 0.889425 8.526242
43.474232 0.889454 8.703988
43.494049 0.889488 8.880303
43.524387 0.889540 9.052616
43.538784 0.889565 9.230108
43.537182 0.889562 9.412572
43.572670 0.889623 9.582208
43.580772 0.889637 9.760598
43.511868 0.889517 9.963302
43.624958 0.889713 10.107218
42.732250 0.892640 1.630847
42.761108 0.892693 1.823537
42.771420 0.892711 2.025655
42.791229 0.892747 2.221786
42.802967 0.892768 2.421473
42.845505 0.892846 2.604085
42.851685 0.892857 2.805208
42.878136 0.892905 2.995002
42.878696 0.892906 3.197402
42.899609 0.892944 3.388617
42.941025 0.893020 3.568920
42.952881 0.893041 3.763419
42.988892 0.893107 3.945366
43.009621 0.893145 4.134248
43.011360 0.893147 4.331599
43.037388 0.893195 4.516651
43.062504 0.893241 4.701593
43.097603 0.893305 4.881385
43.117290 0.893341 5.067805
43.125111 0.893355 5.259016
43.146584 0.893394 5.443444
43.156178 0.893411 5.632587
43.201485 0.893494 5.805505
43.205582 0.893501 5.995925
43.212406 0.893513 6.184505
43.236725 0.893557 6.365083
43.238018 0.893559 6.554782
43.293861 0.893662 6.721410
43.282238 0.893640 6.915283
43.314190 0.893698 7.090923
43.315559 0.893700 7.278320
43.338360 0.893742 7.456718
43.371510 0.893802 7.630722
43.392635 0.893841 7.809002
43.397934 0.893850 7.992816
43.421097 0.893893 8.169460
43.443428 0.893933 8.346040
43.457397 0.893959 8.525265
43.474289 0.893989 8.703011
43.494110 0.894025 8.879325
43.513111 0.894060 9.055558
43.516136 0.894065 9.236870
43.556213 0.894138 9.405223
43.549961 0.894126 9.588772
43.584660 0.894190 9.758376
43.515762 0.894063 9.961100
43.625050 0.894263 10.106236
42.728531 0.902070 1.630913
42.743374 0.902100 1.831299
42.760677 0.902135 2.029512
42.791031 0.902197 2.219906
42.823959 0.902265 2.408297
42.820560 0.902257 2.615270
42.840878 0.902299 2.808879
42.877972 0.902375 2.993117
42.889233 0.902398 3.190055
42.903038 0.902426 3.384925
42.923000 0.902466 3.575979
42.959923 0.902542 3.757985
42.988773 0.902601 3.943477
43.002308 0.902628 4.135842
43.011257 0.902646 4.329709
43.037292 0.902700 4.514759
43.062420 0.902751 4.699700
43.075745 0.902778 4.889565
43.095390 0.902818 5.075891
43.128700 0.902886 5.255471
43.146534 0.902923 5.441547
43.167107 0.902965 5.625844
43.194115 0.903020 5.806807
43.187191 0.903005 6.001944
43.208710 0.903049 6.184172
43.240402 0.903114 6.361630
43.267563 0.903170 6.540598
43.267967 0.903170 6.730142
43.285961 0.903207 6.911877
43.314213 0.903265 7.089019
43.319309 0.903275 7.274945
43.353306 0.903344 7.448995
43.382755 0.903405 7.624501
43.373997 0.903386 7.814204
43.405491 0.903451 7.988096
43.406162 0.903452 8.173109
43.432232 0.903505 8.348248
43.453720 0.903549 8.524711
43.455540 0.903552 8.707798
43.494213 0.903631 8.877413
43.517002 0.903678 9.052338
43.535187 0.903715 9.228504
43.541168 0.903727 9.408405
43.565285 0.903776 9.581826
43.577190 0.903800 9.758943
43.523529 0.903690 9.956738
43.640457 0.903930 10.099488
42.739151 0.894522 1.623096
42.740009 0.894523 1.831243
42.781902 0.894602 2.016048
42.794716 0.894625 2.216019
42.813538 0.894660 2.411955
42.827816 0.894687 2.609547
42.865883 0.894758 2.793928
42.874615 0.894774 2.992961
42.900124 0.894822 3.182600
42.903255 0.894827 3.382932
42.937534 0.894891 3.566828
42.970913 0.894954 3.750667
42.974648 0.894960 3.948512
42.995358 0.894999 4.137329
43.018734 0.895042 4.324257
43.026718 0.895057 4.517893
43.066322 0.895131 4.696005
43.076031 0.895149 4.887564
43.102962 0.895199 5.070561
43.118065 0.895227 5.258411
43.150501 0.895288 5.437910
43.163773 0.895313 5.625454
43.194447 0.895370 5.804799
43.202221 0.895384 5.993602
43.209061 0.895397 6.182164
43.226017 0.895428 6.365827
43.256847 0.895486 6.543195
43.272045 0.895514 6.726611
43.282639 0.895534 6.911369
43.310890 0.895586 7.088494
43.338310 0.895638 7.265577
43.349987 0.895659 7.448435
43.368244 0.895693 7.628237
43.393116 0.895740 7.805079
43.398434 0.895749 7.988891
43.417862 0.895786 8.166923
43.443958 0.895834 8.342111
43.450420 0.895846 8.524047
43.471085 0.895885 8.700418
43.487144 0.895914 8.878037
43.513706 0.895964 9.051622
43.520538 0.895977 9.231643
43.568214 0.896066 9.397462
43.562000 0.896054 9.581059
43.558701 0.896047 9.763122
43.539295 0.896010 9.949816
43.648621 0.896216 10.095044
42.721519 0.900508 1.630873
42.753883 0.900573 1.821583
42.760696 0.900586 2.025582
42.787548 0.900640 2.217868
42.809891 0.900685 2.411893
42.806480 0.900678 2.618803
42.851604 0.900769 2.799385
42.878078 0.900822 2.989176
42.882233 0.900830 3.189754
42.921028 0.900908 3.371955
42.944630 0.900955 3.561295
42.956520 0.900979 3.755808
42.974602 0.901015 3.946557
43.009724 0.901086 4.128403
43.011490 0.901089 4.325755
43.037544 0.901141 4.510802
43.051819 0.901170 4.700827
43.072399 0.901211 4.887285
43.113884 0.901294 5.063610
43.132664 0.901332 5.249858
43.135918 0.901338 5.442474
43.174782 0.901416 5.618644
43.201820 0.901471 5.799634
43.198601 0.901464 5.993221
43.205433 0.901477 6.181768
43.240829 0.901548 6.357654
43.268005 0.901603 6.536619
43.268425 0.901604 6.726163
43.286438 0.901640 6.907897
43.314709 0.901696 7.085036
43.316101 0.901699 7.272433
43.327751 0.901722 7.455192
43.353439 0.901774 7.632020
43.400726 0.901869 7.800261
43.376110 0.901819 7.995353
43.403011 0.901873 8.170506
43.444118 0.901956 8.340135
43.469402 0.902006 8.515286
43.478798 0.902025 8.695761
43.502426 0.902072 8.870765
43.506340 0.902080 9.052258
43.551025 0.902170 9.219337
43.553257 0.902174 9.400578
43.566013 0.902200 9.577820
43.570332 0.902208 9.757417
43.550949 0.902168 9.944162
43.625984 0.902320 10.100306
42.721577 0.897071 1.629960
42.739929 0.897107 1.828386
42.771297 0.897167 2.018929
42.801704 0.897226 2.209362
42.813499 0.897248 2.409093
42.824253 0.897269 2.608551
42.855236 0.897328 2.796618
42.881721 0.897380 2.986423
42.893009 0.897401 3.183376
42.917557 0.897448 3.372843
42.919689 0.897452 3.572905
42.956627 0.897523 3.754889
42.981895 0.897572 3.942122
42.995438 0.897598 4.134454
43.033253 0.897671 4.314474
43.030437 0.897665 4.513305
43.059193 0.897721 4.696517
43.087055 0.897774 4.879644
43.106743 0.897812 5.066016
43.136444 0.897870 5.247289
43.128754 0.897854 5.444818
43.171272 0.897937 5.619335
43.187309 0.897967 5.805110
43.198757 0.897989 5.992297
43.220314 0.898031 6.174572
43.237305 0.898063 6.358282
43.249706 0.898087 6.543373
43.275997 0.898138 6.722199
43.301437 0.898187 6.900958
43.311172 0.898205 7.085598
43.323723 0.898229 7.268565
43.335388 0.898251 7.451356
43.376030 0.898330 7.622460
43.382233 0.898342 7.806444
43.391285 0.898359 7.988801
43.414463 0.898404 8.165409
43.448078 0.898468 8.337833
43.458324 0.898488 8.518428
43.475243 0.898521 8.696172
43.502647 0.898573 8.869834
43.510342 0.898588 9.050021
43.520966 0.898608 9.228733
43.561069 0.898686 9.397097
43.558655 0.898681 9.579404
43.581978 0.898726 9.752761
43.532150 0.898628 9.949355
43.641479 0.898840 10.094542
42.728451 0.902447 1.625765
42.757332 0.902507 1.818435
42.774696 0.902542 2.016707
42.794548 0.902583 2.212851
42.820446 0.902636 2.405021
42.831215 0.902658 2.604509
42.858673 0.902714 2.794457
42.863846 0.902725 2.995296
42.892902 0.902784 3.183068
42.917454 0.902835 3.372535
42.944630 0.902890 3.560068
42.974453 0.902952 3.745710
42.971016 0.902944 3.947089
42.998936 0.903002 4.132404
43.000687 0.903005 4.329707
43.037571 0.903081 4.509573
43.069965 0.903147 4.691121
43.076069 0.903159 4.884375
43.092102 0.903192 5.072361
43.103558 0.903216 5.261809
43.143276 0.903297 5.437979
43.160206 0.903332 5.623874
43.183556 0.903380 5.806400
43.206013 0.903426 5.988819
43.194473 0.903402 6.185237
43.229847 0.903474 6.361075
43.257011 0.903530 6.539991
43.279617 0.903577 6.720367
43.297653 0.903613 6.902149
43.318523 0.903656 7.082312
43.327366 0.903674 7.266782
43.365124 0.903752 7.439405
43.357292 0.903735 7.629342
43.378426 0.903779 7.807553
43.379982 0.903781 7.992707
43.418148 0.903860 8.163707
43.440498 0.903906 8.340267
43.462021 0.903950 8.516759
43.475178 0.903977 8.695859
43.502583 0.904033 8.869521
43.510281 0.904049 9.049708
43.520905 0.904070 9.228420
43.553429 0.904137 9.399333
43.573784 0.904179 9.574059
43.593330 0.904219 9.748723
43.520676 0.904068 9.952715
43.633797 0.904302 10.096644
42.739109 0.893887 1.618996
42.754002 0.893914 1.819425
42.778385 0.893960 2.013859
42.787689 0.893976 2.215709
42.813572 0.894024 2.407848
42.820793 0.894037 2.609173
42.862408 0.894115 2.791668
42.871155 0.894131 2.990684
42.896667 0.894178 3.180307
42.921230 0.894223 3.369789
42.941261 0.894260 3.560917
42.963909 0.894302 3.750092
42.982018 0.894336 3.940871
43.009964 0.894387 4.126232
43.018955 0.894404 4.320129
43.037804 0.894439 4.508630
43.048466 0.894458 4.700350
43.087204 0.894530 4.878391
43.114170 0.894580 5.061434
43.125671 0.894601 5.250978
43.132572 0.894614 5.441930
43.156807 0.894659 5.624544
43.191151 0.894722 5.802253
43.206280 0.894750 5.987873
43.191063 0.894721 6.185859
43.230122 0.894794 6.360128
43.242516 0.894817 6.545187
43.283604 0.894893 6.717898
43.290524 0.894906 6.904209
43.307674 0.894937 7.085824
43.320225 0.894960 7.268775
43.335613 0.894989 7.450095
43.365059 0.895043 7.625515
43.378731 0.895068 7.806602
43.406509 0.895120 7.981913
43.407204 0.895121 8.166925
43.437061 0.895176 8.340688
43.454819 0.895209 8.518520
43.479275 0.895254 8.693565
43.495361 0.895284 8.871217
43.514397 0.895319 9.047446
43.540169 0.895367 9.221012
43.553772 0.895392 9.398378
43.566536 0.895415 9.575620
43.582272 0.895444 9.751493
43.521030 0.895329 9.951761
43.634155 0.895540 10.095688
42.753048 0.892471 1.606242
42.750484 0.892466 1.816377
42.781906 0.892523 2.006962
42.787720 0.892533 2.210726
42.817158 0.892587 2.400979
42.827946 0.892606 2.600450
42.858967 0.892663 2.788527
42.871281 0.892685 2.985691
42.893253 0.892725 3.177133
42.924965 0.892783 3.362985
42.934299 0.892799 3.559496
42.964123 0.892854 3.745088
42.960701 0.892847 3.946419
42.995823 0.892911 4.128196
43.019238 0.892953 4.315119
43.059799 0.893027 4.493347
43.056038 0.893020 4.691944
43.087555 0.893077 4.873372
43.118183 0.893133 5.054747
43.129711 0.893154 5.244305
43.132992 0.893160 5.436906
43.168221 0.893224 5.614668
43.191612 0.893266 5.797222
43.217781 0.893314 5.978086
43.198929 0.893279 6.177691
43.204845 0.893289 6.365960
43.265224 0.893400 6.530932
43.280472 0.893427 6.714377
43.291119 0.893447 6.899166
43.300861 0.893464 7.083755
43.320858 0.893500 7.263728
43.354900 0.893562 7.437769
43.365734 0.893582 7.620463
43.371952 0.893593 7.804396
43.395992 0.893637 7.981077
43.404202 0.893651 8.163258
43.430313 0.893699 8.338374
43.470654 0.893772 8.508028
43.498924 0.893824 8.681795
43.473545 0.893777 8.874096
43.511463 0.893846 9.043685
43.525894 0.893872 9.221105
43.554661 0.893924 9.393304
43.563652 0.893941 9.571802
43.571796 0.893955 9.750141
43.529598 0.893877 9.944242
43.635132 0.894071 10.090604
42.735596 0.889502 1.613219
42.757526 0.889540 1.809772
42.760883 0.889546 2.015697
42.780743 0.889580 2.211775
42.824287 0.889657 2.394460
42.831570 0.889669 2.595831
42.848431 0.889699 2.791332
42.867840 0.889732 2.984774
42.886257 0.889764 3.178020
42.932247 0.889845 3.356614
42.927299 0.889836 3.560318
42.971458 0.889914 3.738778
42.950100 0.889875 3.948936
43.003212 0.889969 4.121946
43.008617 0.889978 4.317539
43.027477 0.890011 4.505988
43.056267 0.890061 4.689178
43.084156 0.890110 4.872285
43.082058 0.890106 5.068622
43.137260 0.890203 5.238237
43.162479 0.890247 5.421072
43.168507 0.890257 5.611894
43.195572 0.890305 5.792847
43.207073 0.890325 5.980063
43.206608 0.890324 6.171778
43.205181 0.890321 6.363183
43.250801 0.890401 6.534297
43.273434 0.890440 6.714636
43.287785 0.890465 6.897887
43.323521 0.890528 7.072044
43.332413 0.890543 7.256528
43.355309 0.890583 7.434983
43.366154 0.890602 7.617676
43.391071 0.890646 7.794493
43.400181 0.890661 7.976881
43.415905 0.890689 8.156298
43.442047 0.890734 8.331462
43.448555 0.890746 8.513381
43.469261 0.890782 8.689731
43.485367 0.890810 8.867328
43.504414 0.890843 9.043505
43.526421 0.890882 9.218307
43.555195 0.890932 9.390505
43.564201 0.890947 9.569003
43.595173 0.891002 9.739887
43.526363 0.890880 9.942669
43.620461 0.891046 10.092634
42.725052 0.890680 1.616654
42.753975 0.890732 1.809300
42.771381 0.890763 2.007556
42.791275 0.890798 2.203678
42.820744 0.890850 2.393941
42.838642 0.890882 2.589690
42.866165 0.890931 2.779663
42.864304 0.890927 2.984205
42.889851 0.890973 3.173789
42.932289 0.891048 3.354203
42.938080 0.891058 3.552538
42.953598 0.891086 3.745241
42.986099 0.891144 3.928930
42.996098 0.891161 4.123019
43.005108 0.891177 4.316851
43.052891 0.891262 4.491588
43.074493 0.891301 4.678279
43.084286 0.891318 4.869866
43.100388 0.891346 5.057879
43.119186 0.891379 5.244060
43.140728 0.891418 5.428447
43.186970 0.891500 5.601385
43.177425 0.891483 5.798427
43.199924 0.891523 5.980806
43.195778 0.891515 6.174058
43.231197 0.891578 6.349887
43.232559 0.891580 6.539554
43.262566 0.891633 6.716770
43.299149 0.891699 6.890943
43.305214 0.891709 7.077053
43.328960 0.891751 7.255568
43.336956 0.891765 7.439828
43.358978 0.891804 7.618119
43.391369 0.891862 7.792057
43.385509 0.891851 7.980072
43.427475 0.891926 8.149688
43.423592 0.891919 8.335894
43.471470 0.892004 8.502792
43.484684 0.892028 8.681923
43.493275 0.892043 8.862235
43.512344 0.892076 9.038445
43.541943 0.892129 9.210695
43.555584 0.892153 9.388059
43.564598 0.892169 9.566556
43.587978 0.892210 9.739923
43.561054 0.892162 9.929193
43.632324 0.892289 10.086558
42.725002 0.891537 1.614528
42.757439 0.891595 1.805245
42.764332 0.891607 2.009256
42.784218 0.891643 2.205347
42.817211 0.891702 2.393694
42.831570 0.891728 2.591295
42.862629 0.891784 2.779384
42.878540 0.891812 2.974723
42.889885 0.891833 3.171655
42.910912 0.891870 3.362907
42.945286 0.891932 3.546818
42.964413 0.891966 3.737778
42.978985 0.891992 3.930312
42.992577 0.892017 4.122624
43.008804 0.892046 4.312984
43.034912 0.892093 4.498008
43.060116 0.892138 4.682921
43.091663 0.892195 4.864360
43.118698 0.892243 5.047410
43.122974 0.892251 5.240264
43.148178 0.892296 5.423034
43.161518 0.892320 5.610556
43.195919 0.892382 5.788272
43.214787 0.892416 5.972316
43.210682 0.892408 6.165631
43.227711 0.892438 6.349287
43.258614 0.892494 6.526643
43.281277 0.892535 6.707012
43.295662 0.892560 6.890293
43.324009 0.892611 7.067455
43.332920 0.892627 7.251938
43.352108 0.892662 7.431847
43.366699 0.892688 7.613082
43.387901 0.892726 7.791320
43.393276 0.892735 7.975098
43.420261 0.892784 8.150308
43.450180 0.892837 8.324112
43.449196 0.892835 8.508778
43.484997 0.892900 8.679758
43.508698 0.892942 8.854769
43.512676 0.892949 9.036279
43.527142 0.892975 9.213696
43.533188 0.892986 9.393543
43.576347 0.893064 9.560611
43.569332 0.893050 9.743966
43.527164 0.892974 9.938058
43.655594 0.893206 10.077128
42.742420 0.893785 1.604187
42.753887 0.893806 1.806556
42.774818 0.893844 2.002895
42.791210 0.893874 2.200932
42.824223 0.893936 2.389307
42.831528 0.893949 2.590677
42.851959 0.893987 2.784323
42.878506 0.894036 2.974104
42.904091 0.894083 3.163749
42.932301 0.894135 3.351448
42.941681 0.894152 3.547990
42.950054 0.894167 3.744258
42.993332 0.894248 3.922652
43.021362 0.894300 4.108051
43.008789 0.894276 4.312363
43.027676 0.894311 4.500811
43.052860 0.894357 4.685693
43.095287 0.894436 4.862057
43.104145 0.894452 5.053448
43.137547 0.894514 5.233046
43.151833 0.894540 5.420777
43.168839 0.894571 5.606699
43.192265 0.894615 5.789248
43.214798 0.894656 5.971692
43.207008 0.894641 6.166578
43.242470 0.894707 6.342451
43.254936 0.894730 6.527556
43.288692 0.894793 6.703346
43.299393 0.894812 6.888163
43.316608 0.894844 7.069807
43.332947 0.894874 7.251313
43.355865 0.894916 7.429765
43.359272 0.894922 7.615335
43.369244 0.894941 7.797812
43.385826 0.894971 7.977286
43.409050 0.895014 8.153854
43.450226 0.895090 8.323484
43.445484 0.895081 8.509508
43.481281 0.895148 8.680472
43.493652 0.895170 8.859443
43.527851 0.895234 9.030416
43.530983 0.895239 9.211776
43.559788 0.895293 9.383985
43.565022 0.895302 9.563759
43.588409 0.895345 9.737123
43.531036 0.895238 9.936204
43.644222 0.895449 10.080127
42.721561 0.888231 1.615464
42.761002 0.888299 1.802303
42.778439 0.888329 2.000587
42.794849 0.888357 2.198637
42.824341 0.888408 2.388913
42.824577 0.888407 2.594019
42.852081 0.888455 2.783928
42.860867 0.888470 2.982895
42.886414 0.888514 3.172464
42.921719 0.888574 3.356472
42.920349 0.888572 3.558340
42.953766 0.888629 3.742088
42.989868 0.888692 3.924017
42.996292 0.888702 4.119863
43.008923 0.888724 4.311967
43.045887 0.888788 4.491851
43.060246 0.888812 4.681903
43.088173 0.888860 4.865021
43.115196 0.888907 5.048056
43.141338 0.888952 5.230998
43.137375 0.888944 5.426912
43.165329 0.888993 5.607918
43.199741 0.889052 5.785648
43.192913 0.889040 5.980806
43.203487 0.889058 6.167747
43.246311 0.889132 6.340498
43.262478 0.889159 6.524082
43.277752 0.889185 6.707510
43.292137 0.889210 6.890774
43.313053 0.889246 7.070897
43.347992 0.889306 7.245023
43.341125 0.889294 7.435190
43.370636 0.889345 7.610616
43.376892 0.889355 7.794564
43.393486 0.889384 7.974072
43.409222 0.889410 8.153454
43.439133 0.889462 8.327207
43.460709 0.889499 8.503675
43.477688 0.889528 8.681413
43.497601 0.889562 8.857717
43.509132 0.889582 9.036558
43.531166 0.889620 9.211374
43.556179 0.889663 9.384860
43.565205 0.889678 9.563356
43.580986 0.889705 9.739208
43.519802 0.889599 9.939480
43.632973 0.889795 10.083354
42.731899 0.894437 1.608410
42.760860 0.894491 1.801085
42.778305 0.894523 1.999368
42.798237 0.894560 2.195518
42.824215 0.894608 2.387692
42.824459 0.894608 2.592798
42.848423 0.894653 2.784561
42.878521 0.894709 2.972486
42.907681 0.894764 3.160307
42.921623 0.894790 3.355249
42.930988 0.894807 3.551744
42.971603 0.894883 3.731986
43.000568 0.894937 3.917511
42.989021 0.894915 4.122126
43.026890 0.894986 4.302099
43.053051 0.895034 4.487200
43.078297 0.895081 4.672192
43.080860 0.895086 4.867156
43.100605 0.895123 5.053487
43.123077 0.895164 5.238015
43.155590 0.895225 5.417517
43.176270 0.895264 5.601836
43.177723 0.895266 5.794026
43.200241 0.895308 5.976403
43.218189 0.895341 6.160239
43.220497 0.895345 6.350139
43.251400 0.895403 6.527461
43.274059 0.895445 6.707796
43.299561 0.895493 6.886529
43.316784 0.895525 7.068172
43.340569 0.895569 7.246733
43.341152 0.895570 7.433954
43.370663 0.895625 7.609379
43.388142 0.895658 7.789056
43.415993 0.895710 7.964389
43.413017 0.895704 8.150825
43.454208 0.895781 8.320470
43.460762 0.895793 8.502437
43.477749 0.895824 8.680173
43.505215 0.895875 8.853826
43.524323 0.895911 9.030082
43.535027 0.895931 9.208840
43.563843 0.895985 9.381066
43.569088 0.895994 9.560856
43.581078 0.896016 9.737966
43.516094 0.895894 9.939466
43.644512 0.896135 10.078481
42.738941 0.890292 1.601839
42.750412 0.890312 1.804194
42.757313 0.890324 2.008174
42.787766 0.890378 2.198532
42.810200 0.890418 2.392546
42.821033 0.890436 2.591982
42.859184 0.890504 2.776312
42.875103 0.890532 2.971635
42.900707 0.890577 3.161261
42.918213 0.890608 3.354364
42.941891 0.890650 3.543677
42.971786 0.890703 3.729291
42.986401 0.890728 3.921854
42.996429 0.890746 4.115941
43.019901 0.890787 4.302857
43.053284 0.890847 4.484499
43.067677 0.890872 4.674581
43.088379 0.890908 4.861090
43.100876 0.890930 5.050783
43.116070 0.890957 5.238609
43.152237 0.891021 5.416443
43.169262 0.891051 5.602362
43.167046 0.891047 5.796123
43.226276 0.891152 5.962594
43.211174 0.891125 6.160666
43.231907 0.891161 6.342769
43.248070 0.891190 6.526286
43.285538 0.891256 6.700517
43.274006 0.891235 6.894349
43.313469 0.891305 7.066945
43.314945 0.891307 7.254323
43.345299 0.891361 7.429779
43.371098 0.891407 7.606659
43.384846 0.891431 7.787759
43.401470 0.891460 7.967297
43.417236 0.891488 8.146710
43.443417 0.891534 8.321869
43.442444 0.891532 8.506502
43.478252 0.891595 8.677445
43.498184 0.891631 8.853747
43.524849 0.891678 9.027351
43.531780 0.891690 9.207402
43.560604 0.891741 9.379608
43.554459 0.891730 9.563161
43.589260 0.891791 9.732744
43.520485 0.891668 9.935509
43.622234 0.891849 10.083000
42.721321 0.894558 1.607840
42.743282 0.894599 1.804325
42.767738 0.894645 1.998697
42.794716 0.894695 2.190999
42.817184 0.894737 2.385040
42.824516 0.894751 2.586376
42.855598 0.894809 2.774427
42.875084 0.894845 2.967893
42.907825 0.894906 3.153872
42.911091 0.894912 3.354234
42.931194 0.894950 3.545305
42.964664 0.895012 3.729093
42.979279 0.895039 3.921624
43.014511 0.895105 4.103465
43.019997 0.895115 4.299103
43.038944 0.895151 4.487594
43.053322 0.895177 4.677611
43.092152 0.895250 4.855649
43.130131 0.895321 5.033697
43.123539 0.895308 5.231546
43.148781 0.895356 5.414311
43.184109 0.895422 5.592122
43.203930 0.895459 5.776334
43.204491 0.895459 5.968337
43.215115 0.895479 6.155326
43.232189 0.895511 6.338995
43.252064 0.895548 6.520972
43.259956 0.895562 6.707390
43.296570 0.895631 6.881539
43.295254 0.895628 7.070610
43.337620 0.895707 7.241704
43.345676 0.895722 7.425995
43.360298 0.895749 7.607194
43.388996 0.895803 7.782547
43.398155 0.895820 7.964916
43.413933 0.895849 8.144311
43.440121 0.895898 8.319450
43.457966 0.895931 8.497274
43.497581 0.896006 8.666939
43.487366 0.895986 8.853929
43.517811 0.896043 9.026171
43.517178 0.896042 9.208774
43.549782 0.896103 9.379635
43.581608 0.896162 9.550537
43.586040 0.896170 9.730183
43.532509 0.896069 9.928029
43.657162 0.896303 10.068300
42.738846 0.890920 1.596234
42.760857 0.890959 1.792795
42.774830 0.890983 1.992989
42.798309 0.891025 2.187222
42.820797 0.891065 2.381276
42.831680 0.891084 2.580758
42.830891 0.891083 2.785523
42.857433 0.891130 2.975204
42.897259 0.891201 3.157459
42.911217 0.891226 3.352350
42.934910 0.891268 3.541628
42.964813 0.891321 3.727207
42.979431 0.891347 3.919737
43.007469 0.891397 4.105068
42.994919 0.891374 4.309319
43.053577 0.891479 4.478852
43.067997 0.891505 4.668931
43.081463 0.891529 4.858802
43.097607 0.891557 5.046796
43.131042 0.891617 5.226353
43.149002 0.891649 5.412417
43.173367 0.891692 5.595080
43.200504 0.891741 5.776040
43.204735 0.891748 5.966441
43.204334 0.891747 6.158139
43.247200 0.891824 6.330879
43.267101 0.891859 6.512922
43.275032 0.891873 6.699404
43.300564 0.891918 6.878133
43.302975 0.891922 7.065731
43.319328 0.891951 7.247169
43.364613 0.892032 7.416808
43.371811 0.892045 7.600969
43.366894 0.892036 7.789190
43.391003 0.892079 7.965827
43.414276 0.892120 8.142406
43.432964 0.892153 8.320294
43.458328 0.892199 8.495367
43.494186 0.892263 8.666370
43.499065 0.892271 8.848041
43.525753 0.892319 9.021641
43.540279 0.892344 9.199103
43.561554 0.892382 9.373893
43.547844 0.892357 9.559966
43.594059 0.892440 9.725782
43.532936 0.892330 9.926118
43.627090 0.892499 10.076066
42.728119 0.900415 1.599357
42.753624 0.900466 1.793938
42.774616 0.900508 1.990270
42.798107 0.900555 2.184501
42.831196 0.900622 2.372898
42.817364 0.900593 2.585513
42.855537 0.900670 2.769821
42.882149 0.900723 2.959609
42.886440 0.900732 3.160201
42.914661 0.900788 3.347814
42.920490 0.900800 3.546067
42.953960 0.900867 3.729805
42.968571 0.900896 3.922286
43.010998 0.900981 4.100587
43.009285 0.900977 4.299667
43.031841 0.901023 4.486395
43.078823 0.901117 4.661099
43.085064 0.901129 4.854382
43.097595 0.901154 5.044056
43.145611 0.901251 5.217011
43.149014 0.901257 5.409673
43.169727 0.901299 5.593954
43.196873 0.901353 5.774896
43.223141 0.901406 5.955762
43.211754 0.901383 6.152250
43.236210 0.901432 6.332793
43.237644 0.901434 6.522476
43.260330 0.901480 6.702740
43.278435 0.901516 6.884415
43.303093 0.901565 7.062977
43.334335 0.901628 7.238519
43.342407 0.901644 7.422793
43.375694 0.901711 7.596770
43.374538 0.901708 7.783582
43.402409 0.901764 7.958843
43.429462 0.901818 8.134076
43.440674 0.901841 8.314781
43.447254 0.901854 8.496679
43.475567 0.901910 8.670319
43.495525 0.901950 8.846600
43.518440 0.901996 9.021492
43.544319 0.902048 9.195042
43.554241 0.902068 9.373675
43.582294 0.902124 9.545852
43.586746 0.902133 9.725496
43.544662 0.902047 9.919666
43.638844 0.902237 10.069660
42.731716 0.896051 1.597906
42.746716 0.896079 1.798296
42.785244 0.896153 1.985020
42.784122 0.896150 2.192600
42.799530 0.896179 2.390361
42.845737 0.896267 2.571055
42.852081 0.896279 2.772173
42.889339 0.896350 2.956429
42.890083 0.896351 3.158875
42.925446 0.896419 3.342891
42.934872 0.896436 3.539397
42.971954 0.896507 3.721422
42.968643 0.896500 3.922786
43.018265 0.896595 4.097598
43.023781 0.896605 4.293250
43.042751 0.896641 4.481756
43.046291 0.896648 4.676879
43.085125 0.896722 4.854883
43.101292 0.896752 5.042890
43.123806 0.896795 5.227413
43.163673 0.896871 5.403637
43.158810 0.896862 5.599310
43.182259 0.896906 5.781807
43.226860 0.896991 5.954677
43.204437 0.896948 6.155893
43.228882 0.896995 6.336404
43.259838 0.897054 6.513750
43.271461 0.897075 6.698678
43.300709 0.897131 6.875883
43.336536 0.897200 7.050073
43.334370 0.897195 7.239022
43.361061 0.897246 7.416010
43.353336 0.897231 7.605920
43.382042 0.897285 7.781236
43.398689 0.897317 7.960756
43.399487 0.897318 8.145717
43.440693 0.897397 8.315286
43.447273 0.897409 8.497185
43.483116 0.897477 8.668139
43.518181 0.897544 8.839148
43.514668 0.897537 9.023309
43.521622 0.897550 9.203307
43.558037 0.897620 9.372907
43.570908 0.897644 9.550140
43.590553 0.897681 9.724759
43.533237 0.897571 9.923856
43.635025 0.897766 10.071379
42.735134 0.899109 1.595036
42.764156 0.899166 1.787716
42.778152 0.899194 1.987927
42.791100 0.899219 2.187873
42.806526 0.899249 2.385665
42.810322 0.899257 2.588823
42.848480 0.899332 2.773100
42.867977 0.899371 2.966533
42.900723 0.899435 3.152477
42.918270 0.899470 3.345576
42.956291 0.899545 3.527717
42.946835 0.899526 3.732927
42.961433 0.899554 3.925377
43.000244 0.899631 4.105393
43.023766 0.899678 4.292318
43.035507 0.899701 4.484251
43.075256 0.899779 4.662366
43.081490 0.899791 4.855631
43.119473 0.899867 5.033626
43.145668 0.899918 5.216578
43.141773 0.899910 5.412509
43.166134 0.899958 5.595140
43.196938 0.900019 5.774463
43.193832 0.900013 5.968019
43.219177 0.900063 6.148677
43.247341 0.900118 6.327695
43.259872 0.900143 6.512814
43.271496 0.900166 6.697742
43.300747 0.900223 6.874945
43.314304 0.900250 7.058074
43.345570 0.900312 7.233665
43.342487 0.900305 7.422359
43.368313 0.900356 7.599217
43.389576 0.900398 7.777448
43.402496 0.900424 7.958407
43.414551 0.900447 8.139209
43.437008 0.900491 8.315722
43.458630 0.900534 8.492167
43.471889 0.900560 8.671227
43.499393 0.900614 8.844838
43.503422 0.900622 9.026295
43.540638 0.900696 9.195897
43.550552 0.900715 9.374516
43.574802 0.900763 9.547936
43.598259 0.900809 9.721328
43.525734 0.900665 9.925366
43.627514 0.900867 10.072854
42.741959 0.907730 1.592536
42.763988 0.907778 1.789109
42.781487 0.907816 1.987404
42.794437 0.907844 2.187366
42.802811 0.907862 2.388945
42.845490 0.907955 2.571524
42.862457 0.907992 2.767081
42.881977 0.908034 2.960576
42.893387 0.908059 3.157523
42.914482 0.908104 3.348782
42.959644 0.908203 3.527324
42.957359 0.908197 3.728997
42.979153 0.908245 3.917974
42.996403 0.908282 4.108538
43.019905 0.908333 4.295450
43.042477 0.908382 4.482227
43.067749 0.908437 4.667165
43.092106 0.908490 4.851990
43.111923 0.908533 5.038363
43.123528 0.908558 5.227884
43.134182 0.908581 5.417183
43.173157 0.908666 5.593309
43.178307 0.908677 5.783882
43.204540 0.908734 5.964668
43.207825 0.908741 6.154797
43.254387 0.908843 6.325997
43.274311 0.908886 6.508071
43.285965 0.908911 6.693062
43.285587 0.908910 6.882380
43.310253 0.908964 7.060974
43.337784 0.909024 7.238024
43.357033 0.909065 7.417942
43.360493 0.909073 7.603512
43.385468 0.909127 7.780287
43.402122 0.909163 7.959822
43.410419 0.909181 8.142016
43.451645 0.909271 8.311636
43.450714 0.909268 8.496302
43.463955 0.909297 8.675328
43.521633 0.909423 8.838298
43.518127 0.909415 9.022474
43.536434 0.909455 9.198610
43.546337 0.909476 9.377213
43.547802 0.909479 9.558179
43.586418 0.909563 9.726480
43.529099 0.909437 9.925559
43.627068 0.909651 10.074276
42.731571 0.901950 1.596562
42.746578 0.901980 1.796952
42.778088 0.902045 1.987507
42.801598 0.902093 2.181751
42.806469 0.902102 2.385245
42.831482 0.902153 2.577185
42.844887 0.902181 2.774534
42.882130 0.902257 2.958758
42.897110 0.902287 3.153881
42.911083 0.902315 3.348771
42.931213 0.902357 3.539840
42.964710 0.902425 3.723623
42.972164 0.902440 3.919674
42.982208 0.902460 4.113696
43.023724 0.902545 4.291896
43.035469 0.902569 4.483829
43.064354 0.902628 4.667036
43.081459 0.902663 4.855208
43.115803 0.902733 5.034870
43.123779 0.902749 5.226056
43.152699 0.902808 5.407182
43.158794 0.902820 5.597952
43.193249 0.902891 5.775640
43.197479 0.902899 5.966009
43.204441 0.902913 6.154534
43.232574 0.902970 6.333490
43.256161 0.903018 6.513927
43.282581 0.903072 6.692750
43.289619 0.903086 6.879038
43.303158 0.903114 7.062118
43.326965 0.903162 7.240607
43.353657 0.903217 7.417561
43.364582 0.903239 7.600231
43.389572 0.903290 7.777021
43.391262 0.903293 7.962206
43.429550 0.903372 8.133215
43.452030 0.903417 8.309793
43.443588 0.903400 8.497177
43.494507 0.903504 8.662741
43.503174 0.903521 8.843084
43.514767 0.903545 9.021938
43.529289 0.903574 9.199351
43.550564 0.903618 9.374088
43.571022 0.903659 9.548769
43.579266 0.903676 9.727118
43.533363 0.903581 9.922485
43.638969 0.903798 10.068793
42.717422 0.909089 1.603073
42.760426 0.909184 1.787952
42.774422 0.909215 1.988144
42.797924 0.909267 2.182374
42.813377 0.909301 2.380196
42.827805 0.909332 2.577776
42.855385 0.909393 2.767691
42.874901 0.909436 2.961155
42.889870 0.909469 3.156245
42.914536 0.909523 3.345680
42.938255 0.909576 3.534973
42.964607 0.909634 3.722340
42.968475 0.909642 3.920150
42.992912 0.909696 4.107176
43.030849 0.909780 4.287152
43.035389 0.909790 4.482543
43.057037 0.909838 4.669146
43.074127 0.909875 4.857286
43.115738 0.909967 5.033582
43.120075 0.909977 5.226419
43.141693 0.910024 5.410797
43.180691 0.910111 5.586952
43.196869 0.910146 5.772748
43.201118 0.910155 5.963131
43.215446 0.910187 6.148533
43.228867 0.910216 6.333752
43.281986 0.910334 6.501866
43.275169 0.910318 6.694500
43.300724 0.910375 6.873226
43.310581 0.910396 7.057843
43.330688 0.910441 7.237838
43.353664 0.910492 7.416265
43.364597 0.910515 7.598936
43.400803 0.910596 7.771451
43.368828 0.910524 7.969362
43.418331 0.910634 8.136094
43.444553 0.910692 8.311246
43.458675 0.910723 8.490442
43.487015 0.910785 8.664128
43.499454 0.910813 8.843111
43.526161 0.910872 9.016708
43.521786 0.910862 9.200637
43.554424 0.910934 9.371510
43.571095 0.910971 9.547467
43.586945 0.911005 9.723330
43.525837 0.910869 9.923638
43.642872 0.911129 10.066278
42.738472 0.904487 1.590181
42.771023 0.904556 1.780944
42.781536 0.904577 1.983099
42.801544 0.904619 2.179258
42.820538 0.904659 2.375211
42.834988 0.904689 2.572821
42.869678 0.904762 2.759056
42.875019 0.904773 2.959938
42.886433 0.904797 3.156852
42.936077 0.904901 3.333616
42.949120 0.904929 3.528378
42.964748 0.904961 3.721121
42.982986 0.904999 3.911888
43.000263 0.905036 4.102466
43.012978 0.905062 4.294579
43.060852 0.905163 4.469325
43.053585 0.905147 4.669621
43.092449 0.905229 4.847652
43.101376 0.905248 5.039023
43.142128 0.905333 5.215291
43.145535 0.905340 5.407938
43.191864 0.905438 5.580870
43.175083 0.905402 5.781137
43.197651 0.905449 5.963493
43.211983 0.905479 6.148876
43.236454 0.905531 6.329416
43.256367 0.905572 6.511407
43.282795 0.905628 6.690228
43.304665 0.905674 6.870492
43.333092 0.905733 7.047675
43.330933 0.905728 7.236609
43.350189 0.905769 7.416492
43.372311 0.905815 7.594823
43.386112 0.905844 7.775919
43.395298 0.905863 7.958270
43.414852 0.905904 8.136253
43.448589 0.905975 8.308637
43.455196 0.905989 8.490566
43.479767 0.906040 8.665580
43.480877 0.906042 8.848510
43.515118 0.906114 9.019403
43.548580 0.906185 9.190347
43.554729 0.906197 9.370274
43.556221 0.906200 9.551273
43.598671 0.906290 9.718359
43.529964 0.906144 9.921176
43.631763 0.906359 10.068672
42.731476 0.904445 1.593685
42.742996 0.904468 1.796006
42.785046 0.904557 1.980793
42.794506 0.904577 2.182670
42.827595 0.904646 2.371051
42.842064 0.904676 2.568691
42.848415 0.904689 2.769794
42.882130 0.904760 2.955870
42.900684 0.904799 3.149167
42.928951 0.904858 3.336842
42.927681 0.904855 3.538739
42.954014 0.904911 3.726060
42.990185 0.904987 3.907975
43.000282 0.905008 4.102075
43.038242 0.905088 4.282081
43.057262 0.905127 4.470646
43.057228 0.905127 4.667531
43.077957 0.905170 4.853989
43.097763 0.905212 5.040298
43.134869 0.905290 5.218199
43.149216 0.905320 5.405911
43.155315 0.905332 5.596665
43.182446 0.905389 5.777540
43.205032 0.905437 5.959926
43.208340 0.905443 6.150054
43.236492 0.905502 6.329023
43.256405 0.905544 6.511014
43.268044 0.905568 6.695924
43.286182 0.905606 6.877629
43.310867 0.905658 7.056220
43.345856 0.905732 7.230319
43.346512 0.905733 7.417555
43.376091 0.905795 7.592987
43.401115 0.905848 7.769824
43.387867 0.905819 7.960692
43.426159 0.905900 8.131680
43.441135 0.905931 8.310992
43.447731 0.905945 8.492890
43.468525 0.905988 8.669212
43.473396 0.905998 8.850766
43.522747 0.906102 9.016386
43.518368 0.906092 9.200299
43.543427 0.906145 9.373709
43.579067 0.906220 9.543313
43.591141 0.906245 9.720450
43.533844 0.906124 9.919553
43.620399 0.906306 10.071908
42.731407 0.907288 1.592993
42.753437 0.907335 1.789519
42.756893 0.907342 1.995429
42.794445 0.907424 2.181977
42.820484 0.907480 2.374128
42.824329 0.907488 2.577347
42.841278 0.907525 2.772809
42.885639 0.907621 2.953336
42.893517 0.907638 3.152121
42.914639 0.907684 3.343377
42.938366 0.907735 3.532669
42.961143 0.907784 3.721812
42.979382 0.907824 3.912561
43.011055 0.907892 4.096141
43.031002 0.907936 4.284842
43.035553 0.907945 4.480234
43.068073 0.908016 4.661740
43.096088 0.908076 4.844880
43.112297 0.908111 5.032933
43.116638 0.908120 5.225754
43.141907 0.908175 5.408481
43.173603 0.908244 5.587871
43.193443 0.908287 5.772031
43.197689 0.908296 5.962400
43.226738 0.908359 6.141500
43.243874 0.908396 6.325213
43.263802 0.908439 6.507235
43.279152 0.908472 6.690657
43.301022 0.908519 6.870902
43.318314 0.908556 7.052538
43.327286 0.908576 7.236987
43.350266 0.908625 7.415396
43.353733 0.908633 7.600933
43.382462 0.908695 7.776246
43.410366 0.908755 7.951536
43.414948 0.908765 8.135155
43.441177 0.908822 8.310288
43.470348 0.908885 8.484030
43.491177 0.908930 8.660450
43.499859 0.908949 8.840775
43.503902 0.908957 9.022232
43.533562 0.909021 9.194420
43.532112 0.909018 9.376836
43.563946 0.909087 9.547649
43.591206 0.909146 9.719744
43.533913 0.909021 9.918847
43.647156 0.909267 10.062725
42.724297 0.912633 1.596246
42.756817 0.912707 1.786948
42.760288 0.912715 1.992872
42.783772 0.912769 2.187039
42.816845 0.912845 2.375371
42.820686 0.912853 2.578576
42.848259 0.912916 2.768459
42.878429 0.912985 2.956373
42.918343 0.913077 3.138712
42.946655 0.913142 3.326462
42.927547 0.913098 3.537401
42.961052 0.913174 3.721168
42.986477 0.913233 3.908394
42.996571 0.913256 4.102479
43.012890 0.913293 4.292847
43.064388 0.913411 4.465876
43.082489 0.913453 4.654302
43.074238 0.913433 4.854329
43.126770 0.913554 5.025622
43.131145 0.913564 5.218505
43.149143 0.913605 5.404566
43.166222 0.913644 5.590463
43.186050 0.913689 5.774590
43.215996 0.913758 5.953818
43.197254 0.913714 6.153419
43.240135 0.913813 6.326121
43.267448 0.913875 6.505049
43.268013 0.913876 6.694575
43.289864 0.913926 6.874772
43.314556 0.913983 7.053380
43.342125 0.914046 7.230441
43.346504 0.914056 7.416204
43.372360 0.914115 7.593076
43.374954 0.914121 7.778447
43.387875 0.914150 7.959340
43.411171 0.914203 8.135898
43.441158 0.914272 8.309638
43.443996 0.914278 8.492896
43.483627 0.914369 8.662485
43.492302 0.914389 8.842776
43.537903 0.914494 9.009788
43.533554 0.914483 9.193768
43.558640 0.914541 9.367243
43.575333 0.914579 9.543215
43.595001 0.914624 9.717848
43.522495 0.914456 9.921878
43.616665 0.914673 10.071758
42.727768 0.913548 1.594272
42.763805 0.913631 1.783056
42.774311 0.913655 1.985180
42.804871 0.913726 2.175605
42.823883 0.913770 2.371572
42.831272 0.913787 2.572938
42.858875 0.913851 2.762866
42.889069 0.913921 2.950827
42.893398 0.913930 3.151450
42.932365 0.914021 3.333666
42.923954 0.914000 3.539167
42.968201 0.914103 3.717587
42.975685 0.914120 3.913651
42.996555 0.914168 4.102450
43.023689 0.914231 4.287629
43.046299 0.914283 4.474418
43.078846 0.914359 4.655973
43.077850 0.914356 4.852618
43.130386 0.914478 5.023928
43.127483 0.914471 5.220129
43.145477 0.914512 5.406172
43.158894 0.914543 5.593672
43.186035 0.914606 5.774562
43.212307 0.914667 5.955377
43.208275 0.914657 6.148679
43.247494 0.914748 6.322981
43.267433 0.914794 6.505021
43.267994 0.914795 6.694547
43.282433 0.914828 6.877757
43.325680 0.914928 7.048882
43.330952 0.914940 7.234835
43.327866 0.914933 7.423464
43.376076 0.915044 7.591607
43.378677 0.915050 7.776993
43.402832 0.915106 7.953676
43.418659 0.915142 8.133084
43.444897 0.915203 8.308234
43.462788 0.915244 8.486070
43.468544 0.915257 8.667830
43.484737 0.915295 8.845403
43.522774 0.915383 9.015000
43.525974 0.915390 9.196326
43.562420 0.915475 9.365936
43.571522 0.915495 9.544447
43.583580 0.915523 9.721553
43.541519 0.915425 9.915711
43.631901 0.915635 10.066886
42.734692 0.915761 1.589074
42.774254 0.915855 1.775957
42.781277 0.915871 1.980042
42.804821 0.915927 2.174298
42.813255 0.915946 2.375922
42.824169 0.915972 2.575370
42.851757 0.916037 2.765267
42.867733 0.916075 2.960552
42.893383 0.916135 3.150141
42.925213 0.916211 3.335973
42.941826 0.916250 3.528893
42.968201 0.916312 3.716274
42.975693 0.916330 3.912338
42.992966 0.916370 4.102883
43.023708 0.916443 4.286315
43.046326 0.916497 4.473103
43.064388 0.916539 4.661450
43.070633 0.916554 4.854667
43.119522 0.916670 5.027609
43.120243 0.916671 5.222114
43.152832 0.916748 5.401585
43.184555 0.916823 5.581022
43.178768 0.916809 5.776450
43.208702 0.916880 5.955645
43.212032 0.916887 6.145787
43.232830 0.916936 6.327882
43.241673 0.916957 6.514471
43.268089 0.917020 6.693225
43.297356 0.917089 6.870409
43.318359 0.917138 7.050539
43.334782 0.917177 7.232037
43.350330 0.917214 7.413394
43.376198 0.917275 7.590281
43.404964 0.917343 7.765692
43.406712 0.917347 7.950942
43.426296 0.917393 8.128972
43.448795 0.917446 8.305531
43.466702 0.917488 8.483382
43.487534 0.917538 8.659785
43.511314 0.917594 8.834785
43.530499 0.917639 9.011050
43.533714 0.917646 9.192410
43.555016 0.917697 9.367160
43.560318 0.917709 9.546898
43.587574 0.917773 9.718976
43.564552 0.917718 9.907015
43.632103 0.917879 10.065553
42.734753 0.910970 1.586290
42.756813 0.911019 1.782830
42.763813 0.911035 1.986838
42.801403 0.911120 2.173412
42.831009 0.911186 2.363703
42.817223 0.911155 2.576321
42.855438 0.911241 2.760621
42.871437 0.911277 2.955921
42.900669 0.911343 3.143697
42.932533 0.911414 3.329558
42.942017 0.911435 3.526096
42.964825 0.911487 3.715251
42.990269 0.911544 3.902493
43.014793 0.911599 4.089607
43.016735 0.911603 4.286973
43.024895 0.911621 4.480584
43.071899 0.911728 4.655247
43.081799 0.911750 4.846813
43.116177 0.911827 5.026467
43.142410 0.911886 5.209397
43.145847 0.911894 5.402043
43.148308 0.911899 5.594400
43.182777 0.911977 5.772033
43.198040 0.912011 5.957591
43.205040 0.912026 6.146114
43.240578 0.912107 6.321955
43.253143 0.912135 6.507035
43.272190 0.912177 6.688883
43.301476 0.912243 6.866081
43.311367 0.912265 7.050696
43.320347 0.912285 7.235111
43.358231 0.912371 7.407653
43.369198 0.912395 7.590339
43.390495 0.912443 7.768565
43.399712 0.912464 7.950931
43.419296 0.912508 8.128928
43.453060 0.912584 8.301323
43.470985 0.912624 8.479189
43.484303 0.912654 8.658295
43.500538 0.912691 8.835932
43.519718 0.912734 9.012146
43.526714 0.912749 9.192160
43.555595 0.912814 9.364322
43.579891 0.912869 9.537754
43.591984 0.912896 9.714890
43.546139 0.912792 9.910315
43.636536 0.912996 10.061499
42.748672 0.914092 1.579013
42.760254 0.914119 1.781410
42.767262 0.914135 1.985432
42.790779 0.914190 2.179628
42.816830 0.914250 2.371759
42.820686 0.914259 2.574964
42.858913 0.914348 2.759279
42.874912 0.914385 2.954595
42.893471 0.914428 3.147860
42.928883 0.914510 3.331882
42.941936 0.914540 3.526610
42.968319 0.914602 3.713989
42.983002 0.914636 3.906531
43.003906 0.914684 4.095359
43.023861 0.914730 4.284028
43.042870 0.914774 4.472529
43.060940 0.914816 4.660859
43.085323 0.914873 4.845647
43.101532 0.914911 5.033651
43.135021 0.914989 5.213215
43.145741 0.915013 5.402560
43.151855 0.915027 5.593298
43.186333 0.915107 5.770947
43.197929 0.915134 5.958108
43.215961 0.915176 6.141919
43.222038 0.915190 6.330246
43.253025 0.915262 6.507553
43.268372 0.915297 6.690924
43.286533 0.915339 6.872627
43.326084 0.915432 7.045254
43.327656 0.915435 7.232682
43.358101 0.915506 7.408172
43.372799 0.915540 7.589416
43.394093 0.915589 7.767660
43.395832 0.915593 7.952860
43.426659 0.915665 8.126662
43.426632 0.915664 8.311479
43.463318 0.915750 8.482430
43.476620 0.915780 8.661502
43.496616 0.915827 8.837780
43.519569 0.915880 9.012667
43.534130 0.915914 9.190093
43.555443 0.915963 9.364843
43.583534 0.916029 9.537014
43.599426 0.916066 9.712923
43.542171 0.915931 9.912066
43.640186 0.916160 10.060810
42.731228 0.910991 1.586276
42.746288 0.911025 1.786662
42.774334 0.911088 1.979125
42.783806 0.911109 2.180955
42.813377 0.911176 2.371168
42.834919 0.911224 2.565004
42.844833 0.911246 2.764220
42.857262 0.911274 2.961312
42.897152 0.911364 3.143554
42.918312 0.911412 3.334823
42.938503 0.911457 3.525918
42.964893 0.911517 3.713280
42.990349 0.911574 3.900520
43.004082 0.911605 4.092871
43.016834 0.911633 4.284999
43.043068 0.911692 4.470039
43.075634 0.911766 4.651572
43.078293 0.911771 4.846519
43.090855 0.911799 5.036159
43.124336 0.911875 5.215672
43.160599 0.911957 5.393522
43.174072 0.911987 5.581083
43.190273 0.912023 5.766844
43.227592 0.912108 5.942909
43.190510 0.912023 6.150418
43.233402 0.912120 6.323081
43.253345 0.912165 6.505050
43.287197 0.912241 6.680803
43.294285 0.912257 6.867108
43.319016 0.912313 7.045727
43.324303 0.912324 7.231647
43.369652 0.912427 7.401288
43.365723 0.912417 7.589788
43.368328 0.912423 7.775128
43.403725 0.912503 7.947529
43.427074 0.912555 8.124148
43.449593 0.912606 8.300705
43.463757 0.912638 8.479914
43.492138 0.912702 8.653611
43.500851 0.912721 8.833935
43.520039 0.912764 9.010148
43.557320 0.912849 9.179807
43.548347 0.912828 9.364879
43.568848 0.912874 9.539536
43.580933 0.912901 9.716623
43.538883 0.912805 9.910773
43.636906 0.913027 10.059496
42.720669 0.913771 1.590723
42.756718 0.913855 1.779471
42.781288 0.913912 1.973894
42.811897 0.913983 2.164344
42.809795 0.913978 2.371657
42.831333 0.914027 2.565475
42.866055 0.914108 2.751688
