# This PCD file was generated using the MATLAB® pcwrite function
# from Computer Vision Toolbox®.
# .PCD v.7 - Point Cloud Data file format
VERSION .7
FIELDS x y z
SIZE 4 4 4
TYPE F F F
COUNT 1 1 1
WIDTH 1704
HEIGHT 1
VIEWPOINT 0 0 0 1 0 0 0
POINTS 1704
DATA ascii
26.505033 0.874155 6.280749
26.675028 0.874540 6.292018
26.883579 0.875013 6.275501
27.083065 0.875466 6.267708
27.315109 0.875992 6.237496
27.538155 0.876498 6.216127
27.803785 0.877100 6.165751
28.076740 0.877719 6.112707
28.311554 0.878252 6.089705
28.563288 0.878823 6.056874
28.747026 0.879239 6.074276
28.963852 0.879731 6.070105
29.191017 0.880246 6.060707
29.392282 0.880703 6.071060
29.643564 0.881273 6.049203
29.878866 0.881806 6.040390
30.148001 0.882417 6.011177
30.477959 0.883165 5.944399
30.762056 0.883809 5.910804
31.093935 0.884562 5.848986
31.372919 0.885195 5.824271
31.625563 0.885768 5.818821
31.892281 0.886373 5.806762
32.125618 0.886902 5.817850
32.410435 0.887548 5.799203
32.716393 0.888242 5.770241
33.026527 0.888945 5.741576
33.412937 0.889821 5.670148
33.783264 0.890661 5.611977
34.127007 0.891441 5.572914
34.461235 0.892199 5.542563
34.723419 0.892793 5.556666
34.930382 0.893263 5.604386
25.184460 0.872981 6.349334
25.401396 0.873489 6.311387
25.590996 0.873932 6.297633
25.793583 0.874407 6.275248
25.971645 0.874823 6.274203
26.134356 0.875204 6.286762
26.316275 0.875630 6.285708
26.498583 0.876056 6.285946
26.681271 0.876484 6.287476
26.877087 0.876942 6.280647
27.070150 0.877394 6.277630
27.292526 0.877914 6.254524
27.557364 0.878534 6.202219
27.823057 0.879156 6.151928
28.066906 0.879727 6.120070
28.308189 0.880291 6.092370
28.550131 0.880857 6.066477
28.769814 0.881372 6.058505
28.976866 0.881856 6.061299
29.184322 0.882342 6.065598
29.415281 0.882882 6.055597
29.633518 0.883393 6.056287
29.878756 0.883967 6.040744
30.174536 0.884659 5.993811
30.471169 0.885353 5.949161
30.788744 0.886096 5.893681
31.100546 0.886826 5.845013
31.369440 0.887455 5.826800
31.649101 0.888110 5.804203
31.892172 0.888679 5.807141
32.122112 0.889217 5.820343
32.403515 0.889875 5.803783
32.702625 0.890575 5.778961
33.033268 0.891349 5.737833
33.399097 0.892205 5.678756
33.765949 0.893064 5.622567
34.144157 0.893949 5.563205
34.468048 0.894707 5.538959
34.730251 0.895320 5.553093
34.926800 0.895780 5.606778
25.178585 0.871164 6.352980
25.392393 0.871649 6.317516
25.594416 0.872107 6.293667
25.778263 0.872524 6.286268
25.950001 0.872914 6.290110
26.128366 0.873319 6.290215
26.322895 0.873760 6.279299
26.498888 0.874159 6.284438
26.687933 0.874588 6.281101
26.871014 0.875003 6.283945
27.086454 0.875492 6.264084
27.308880 0.875997 6.241035
27.548004 0.876539 6.207766
27.800739 0.877113 6.166852
28.057480 0.877695 6.125501
28.301981 0.878250 6.095414
28.534117 0.878776 6.076427
28.753750 0.879275 6.068371
28.990284 0.879811 6.050493
29.178032 0.880237 6.068476
29.408972 0.880761 6.058433
29.647055 0.881301 6.045616
29.889011 0.881850 6.032344
30.184814 0.882521 5.985439
30.451414 0.883126 5.960621
30.765581 0.883839 5.907220
31.073952 0.884538 5.860603
31.373089 0.885217 5.822845
31.632488 0.885805 5.813098
31.899225 0.886410 5.801057
32.125786 0.886924 5.816389
32.420822 0.887594 5.791435
32.716560 0.888265 5.768752
33.040386 0.888999 5.731801
33.406235 0.889829 5.672733
33.797192 0.890716 5.602286
34.140972 0.891496 5.563265
34.444096 0.892184 5.551032
34.751320 0.892881 5.539141
34.927067 0.893279 5.604769
25.187943 0.872839 6.344558
25.395576 0.873323 6.314178
25.578928 0.873751 6.305401
25.762720 0.874180 6.297927
25.959486 0.874640 6.281827
26.156765 0.875100 6.267146
26.319817 0.875481 6.280909
26.489464 0.875877 6.290913
26.691191 0.876347 6.277814
26.871094 0.876767 6.283080
27.076935 0.877248 6.270416
27.318586 0.877812 6.232996
27.538422 0.878325 6.213995
27.807278 0.878953 6.161239
28.070517 0.879567 6.115220
28.308558 0.880123 6.089841
28.530928 0.880642 6.077822
28.763636 0.881185 6.060537
28.967386 0.881661 6.065571
29.181395 0.882160 6.065262
29.392536 0.882653 6.068778
29.630571 0.883209 6.055880
29.882439 0.883797 6.035840
30.174894 0.884479 5.991109
30.471521 0.885172 5.946431
30.785746 0.885905 5.893108
31.100889 0.886641 5.842225
31.359678 0.887245 5.830457
31.635929 0.887890 5.809933
31.882351 0.888465 5.810661
32.125851 0.889033 5.815348
32.410667 0.889698 5.796679
32.706379 0.890388 5.773941
33.033600 0.891152 5.734865
33.416588 0.892046 5.665491
33.773155 0.892879 5.615456
34.134121 0.893721 5.566205
34.451065 0.894461 5.545898
34.727100 0.895105 5.551962
34.927124 0.895572 5.603635
25.178741 0.870583 6.352190
25.383240 0.871042 6.324293
25.597685 0.871523 6.290353
25.775293 0.871922 6.287955
25.965832 0.872350 6.276876
26.137962 0.872737 6.281983
26.310421 0.873124 6.288296
26.495876 0.873540 6.286047
26.672194 0.873936 6.292404
26.867981 0.874376 6.285513
27.083410 0.874860 6.265632
27.318661 0.875388 6.233015
27.557816 0.875925 6.199780
27.797661 0.876463 6.168333
28.070591 0.877076 6.115239
28.308632 0.877611 6.089861
28.557093 0.878169 6.059313
28.776796 0.878662 6.051350
28.977306 0.879112 6.058729
29.191345 0.879593 6.058462
29.399214 0.880060 6.064280
29.637268 0.880594 6.051412
29.889156 0.881160 6.031400
30.168306 0.881787 5.995562
30.478277 0.882483 5.942051
30.785820 0.883173 5.893129
31.097607 0.883874 5.844419
31.379963 0.884508 5.817538
31.639383 0.885090 5.807813
31.882427 0.885636 5.810683
32.125927 0.886183 5.815370
32.410744 0.886822 5.796701
32.706455 0.887486 5.773963
33.043949 0.888244 5.728683
33.416664 0.889081 5.665514
33.783558 0.889905 5.609365
34.141102 0.890708 5.562181
34.458061 0.891420 5.541906
34.720238 0.892008 5.555973
34.923721 0.892465 5.605638
25.179014 0.871382 6.350448
25.383511 0.871848 6.322537
25.607292 0.872357 6.281047
25.769310 0.872726 6.291166
25.950422 0.873139 6.287497
26.141375 0.873574 6.277702
26.307533 0.873952 6.288929
26.496143 0.874381 6.284209
26.681997 0.874805 6.283267
26.868248 0.875229 6.283649
27.083675 0.875719 6.263752
27.306087 0.876226 6.240665
27.554857 0.876792 6.200239
27.804380 0.877361 6.161685
28.067606 0.877960 6.115633
28.308886 0.878509 6.087893
28.537779 0.879031 6.071226
28.760691 0.879538 6.060858
28.970995 0.880017 6.061288
29.198175 0.880535 6.051884
29.412670 0.881023 6.053197
29.644142 0.881550 6.044858
29.886086 0.882101 6.031549
30.171883 0.882752 5.991244
30.468502 0.883427 5.946529
30.789408 0.884158 5.888795
31.094482 0.884853 5.844420
31.380198 0.885504 5.815348
31.629484 0.886071 5.812031
31.882660 0.886648 5.808456
32.136349 0.887225 5.806787
32.417786 0.887866 5.790240
32.706684 0.888524 5.771677
33.054443 0.889316 5.720169
33.392860 0.890087 5.677550
33.790661 0.890993 5.602924
34.134411 0.891776 5.563839
34.444439 0.892482 5.547525
34.737793 0.893150 5.543574
34.934368 0.893597 5.597257
25.175894 0.873065 6.352800
25.386585 0.873559 6.319825
25.597925 0.874054 6.288391
25.772411 0.874463 6.288477
25.969208 0.874925 6.272402
26.150785 0.875350 6.270099
26.320131 0.875747 6.278908
26.489780 0.876145 6.288898
26.681971 0.876595 6.283069
26.871408 0.877039 6.281035
27.093245 0.877559 6.256349
27.299641 0.878043 6.245236
27.532288 0.878589 6.216645
27.797892 0.879211 6.166195
28.054613 0.879813 6.124804
28.328362 0.880455 6.073699
28.537748 0.880946 6.071013
28.750849 0.881446 6.067550
28.967684 0.881954 6.063360
29.181692 0.882456 6.063034
29.406038 0.882981 6.057497
29.637489 0.883524 6.049127
29.876095 0.884083 6.038016
30.151871 0.884730 6.004313
30.461790 0.885457 5.950705
30.772631 0.886185 5.899499
31.087734 0.886924 5.848532
31.380165 0.887610 5.815114
31.649717 0.888242 5.798939
31.882629 0.888788 5.808218
32.129524 0.889366 5.810773
32.387104 0.889970 5.808881
32.706654 0.890719 5.771433
33.044144 0.891510 5.726126
33.396259 0.892336 5.675247
33.787182 0.893253 5.604711
34.130932 0.894058 5.565605
34.447865 0.894801 5.545259
34.737759 0.895481 5.543314
34.920429 0.895909 5.604908
25.185635 0.871573 6.342789
25.393255 0.872047 6.312357
25.585932 0.872487 6.295999
25.779116 0.872929 6.281026
25.975935 0.873378 6.264959
26.138660 0.873750 6.277487
26.326902 0.874180 6.271486
26.496574 0.874567 6.281486
26.682428 0.874992 6.280524
26.884621 0.875454 6.268811
27.090504 0.875924 6.256164
27.325771 0.876461 6.223531
27.555281 0.876986 6.197402
27.814487 0.877578 6.151744
28.051817 0.878120 6.124467
28.315796 0.878723 6.080315
28.564274 0.879290 6.049748
28.767641 0.879755 6.053287
28.968121 0.880213 6.060587
29.192003 0.880724 6.053418
29.413076 0.881229 6.050161
29.624683 0.881712 6.055268
29.886490 0.882311 6.028462
30.152302 0.882918 6.001423
30.472237 0.883649 5.941178
30.779751 0.884351 5.892173
31.094868 0.885071 5.841204
31.394051 0.885754 5.803470
31.636618 0.886308 5.804472
31.893200 0.886894 5.798772
32.136730 0.887451 5.803459
32.394325 0.888039 5.801572
32.707062 0.888753 5.768288
33.041122 0.889516 5.725017
33.406956 0.890352 5.665872
33.797901 0.891245 5.595342
34.155472 0.892062 5.548153
34.462086 0.892762 5.533907
34.741615 0.893401 5.537973
34.924297 0.893818 5.599565
25.176487 0.872704 6.349439
25.396481 0.873217 6.308857
25.595396 0.873680 6.287483
25.788612 0.874130 6.272543
25.969788 0.874553 6.268930
26.138784 0.874946 6.276483
26.333340 0.875400 6.265559
26.503033 0.875795 6.275580
26.679375 0.876206 6.281927
26.881556 0.876677 6.270192
27.097021 0.877179 6.250320
27.319471 0.877697 6.227255
27.552179 0.878239 6.198715
27.798458 0.878813 6.162468
28.071377 0.879449 6.109314
28.315912 0.880019 6.079223
28.554604 0.880575 6.055598
28.767756 0.881072 6.052177
28.981359 0.881569 6.050316
29.195408 0.882068 6.050018
29.409891 0.882568 6.051284
29.638039 0.883099 6.045143
29.883282 0.883671 6.029537
30.139097 0.884267 6.009121
30.448969 0.884989 5.955411
30.783207 0.885768 5.888795
31.101690 0.886510 5.835656
31.377316 0.887152 5.813044
31.653610 0.887796 5.792531
31.893305 0.888354 5.797537
32.136833 0.888921 5.802214
32.414860 0.889569 5.787724
32.707165 0.890250 5.767020
33.048069 0.891045 5.719598
33.407055 0.891881 5.664576
33.804878 0.892808 5.589953
34.152111 0.893617 5.548852
34.448345 0.894307 5.540603
34.748642 0.895007 5.532637
34.934822 0.895441 5.592272
25.179787 0.867581 6.346727
25.393587 0.868035 6.311208
25.595602 0.868465 6.287306
25.779448 0.868856 6.279859
25.957455 0.869234 6.278689
26.145283 0.869634 6.271362
26.311453 0.869987 6.282577
26.490570 0.870368 6.285171
26.676405 0.870763 6.284172
26.888140 0.871213 6.265177
27.087633 0.871637 6.257336
27.313261 0.872117 6.231842
27.545948 0.872612 6.203270
27.814814 0.873183 6.150481
28.071583 0.873729 6.109120
28.316118 0.874249 6.079027
28.545031 0.874736 6.062351
28.767963 0.875210 6.051978
28.978285 0.875657 6.052404
29.198904 0.876126 6.047542
29.416698 0.876589 6.046563
29.651487 0.877088 6.035957
29.890129 0.877596 6.024868
30.172602 0.878196 5.986752
30.459194 0.878806 5.948596
30.783413 0.879495 5.888582
31.098537 0.880165 5.837613
31.390995 0.880787 5.804194
31.630175 0.881296 5.807313
31.866417 0.881798 5.814342
32.130249 0.882359 5.806218
32.394638 0.882921 5.800091
32.693710 0.883557 5.775129
33.044853 0.884303 5.721437
33.417557 0.885096 5.658182
33.774113 0.885854 5.608068
34.138519 0.886629 5.556710
34.452007 0.887295 5.538356
34.734978 0.887897 5.540370
34.917648 0.888285 5.601921
25.170467 0.869535 6.354212
25.393541 0.870026 6.311076
25.586216 0.870451 6.294708
25.788773 0.870898 6.272232
25.957407 0.871270 6.278554
26.142090 0.871677 6.273697
26.311405 0.872050 6.282440
26.503195 0.872473 6.275259
26.692247 0.872889 6.271888
26.881718 0.873307 6.269866
27.074791 0.873733 6.266801
27.319633 0.874273 6.226924
27.568439 0.874821 6.186513
27.805077 0.875343 6.157413
28.061815 0.875909 6.116009
28.309570 0.876455 6.083540
28.544983 0.876974 6.062202
28.761372 0.877451 6.056433
28.971676 0.877915 6.056829
29.195566 0.878408 6.049663
29.419950 0.878903 6.044150
29.658060 0.879428 6.031312
29.896723 0.879954 6.020251
30.175884 0.880569 5.984376
30.472504 0.881223 5.939630
30.786715 0.881916 5.886233
31.095129 0.882596 5.839622
31.380838 0.883226 5.810504
31.647011 0.883813 5.796433
31.886688 0.884341 5.801404
32.143784 0.884908 5.797596
32.397991 0.885468 5.797823
32.710735 0.886158 5.764537
33.041378 0.886887 5.723333
33.410641 0.887701 5.662114
33.794708 0.888548 5.595657
34.152267 0.889336 5.548435
34.455418 0.890004 5.536165
34.748798 0.890651 5.532212
34.928024 0.891046 5.595801
25.189096 0.868117 6.338789
25.396725 0.868562 6.308359
25.586300 0.868969 6.294514
25.773237 0.869371 6.284526
25.973167 0.869800 6.265935
26.151609 0.870183 6.266088
26.311489 0.870526 6.282240
26.503277 0.870938 6.275059
26.698687 0.871357 6.266826
26.875423 0.871736 6.274494
27.081272 0.872178 6.261792
27.303671 0.872656 6.238653
27.565302 0.873217 6.188676
27.821310 0.873767 6.145404
28.032734 0.874221 6.136904
28.316153 0.874829 6.078664
28.554844 0.875342 6.055034
28.758183 0.875778 6.058518
28.988161 0.876272 6.045166
29.195648 0.876717 6.049441
29.403528 0.877163 6.055223
29.611795 0.877611 6.062519
29.893484 0.878215 6.022254
30.172634 0.878815 5.986364
30.465906 0.879444 5.943799
30.793491 0.880147 5.881624
31.098568 0.880802 5.837213
31.370815 0.881387 5.816737
31.630205 0.881944 5.806905
31.890154 0.882502 5.799033
32.147259 0.883053 5.795237
32.415096 0.883628 5.787081
32.717644 0.884278 5.760119
33.038036 0.884966 5.725149
33.421017 0.885788 5.655697
33.791348 0.886583 5.597436
34.124744 0.887299 5.564363
34.441658 0.887979 5.543935
34.728069 0.888594 5.543909
34.938530 0.889045 5.589600
25.179932 0.867189 6.345957
25.372017 0.867594 6.328108
25.598860 0.868073 6.284012
25.785839 0.868468 6.274074
25.963869 0.868844 6.272925
26.148571 0.869233 6.268091
26.333691 0.869624 6.264571
26.497049 0.869969 6.279473
26.689259 0.870375 6.273638
26.872343 0.870761 6.276428
27.100573 0.871243 6.246900
27.313404 0.871692 6.231003
27.562189 0.872217 6.190557
27.802034 0.872723 6.159064
28.055519 0.873258 6.119985
28.313007 0.873802 6.080487
28.541906 0.874285 6.063790
28.781181 0.874790 6.041883
28.988264 0.875227 6.044647
29.176006 0.875623 6.062562
29.416834 0.876131 6.045657
29.638382 0.876599 6.044025
29.893587 0.877138 6.021718
30.166079 0.877713 5.990254
30.462666 0.878339 5.945456
30.776848 0.879002 5.892006
31.108742 0.879703 5.830136
31.374283 0.880263 5.814016
31.660698 0.880867 5.787049
31.903799 0.881381 5.789945
32.130379 0.881859 5.805226
32.398170 0.882424 5.796992
32.707497 0.883077 5.765782
33.038132 0.883775 5.724554
33.386791 0.884511 5.675634
33.794880 0.885372 5.594790
34.148991 0.886119 5.549580
34.455589 0.886766 5.535280
34.735096 0.887356 5.539295
34.935150 0.887778 5.590947
25.170727 0.867300 6.353157
25.396898 0.867778 6.307486
25.614491 0.868239 6.271029
25.789028 0.868608 6.271149
25.938856 0.868925 6.292371
26.142347 0.869356 6.272599
26.311663 0.869714 6.281334
26.493948 0.870099 6.281476
26.686148 0.870506 6.275624
26.875597 0.870907 6.273568
27.087843 0.871356 6.256055
27.319887 0.871847 6.225775
27.549376 0.872333 6.199594
27.811789 0.872888 6.151523
28.058825 0.873411 6.117172
28.326073 0.873976 6.070691
28.551750 0.874453 6.056365
28.768162 0.874911 6.050615
28.971924 0.875342 6.055607
29.192522 0.875809 6.050705
29.413597 0.876277 6.047427
29.631824 0.876739 6.048022
29.896969 0.877300 6.018988
30.156151 0.877848 5.996400
30.469406 0.878511 5.940544
30.786953 0.879183 5.884932
31.102085 0.879849 5.833961
31.374340 0.880426 5.813492
31.630362 0.880967 5.805809
31.880152 0.881496 5.804311
32.154205 0.882075 5.789893
32.394821 0.882585 5.798549
32.721210 0.883275 5.756900
33.038189 0.883946 5.724001
33.410870 0.884734 5.660697
33.801819 0.885562 5.590144
34.145592 0.886289 5.551033
34.452179 0.886938 5.536712
34.749023 0.887566 5.530737
34.945633 0.887982 5.584425
25.183006 0.867877 6.343377
25.409224 0.868361 6.297764
25.586391 0.868739 6.294016
25.773329 0.869139 6.284024
25.948177 0.869513 6.285305
26.135971 0.869914 6.277931
26.330517 0.870330 6.266984
26.509701 0.870713 6.269656
26.682888 0.871083 6.278452
26.881891 0.871508 6.269138
27.100555 0.871976 6.246855
27.310179 0.872424 6.233346
27.529974 0.872894 6.214248
27.805248 0.873482 6.156659
28.045784 0.873997 6.126974
28.332493 0.874609 6.066454
28.558191 0.875092 6.052159
28.771351 0.875548 6.048744
28.981686 0.875997 6.049176
29.205606 0.876476 6.042046
29.430021 0.876956 6.036569
29.648296 0.877422 6.037241
29.886929 0.877932 6.026131
30.156073 0.878508 5.996853
30.442612 0.879120 5.958616
30.790224 0.879863 5.883207
31.088573 0.880501 5.843120
31.381001 0.881126 5.809649
31.653927 0.881710 5.791282
31.900394 0.882236 5.792021
32.164318 0.882801 5.784036
32.421989 0.883351 5.782247
32.704067 0.883954 5.767812
33.055229 0.884705 5.714155
33.414230 0.885473 5.659147
33.774216 0.886242 5.606967
34.152420 0.887051 5.547501
34.459026 0.887706 5.533215
34.752415 0.888333 5.529269
34.928181 0.888709 5.594846
25.189375 0.870375 6.336713
25.381493 0.870805 6.318892
25.595913 0.871285 6.284869
25.767262 0.871668 6.287397
25.967169 0.872115 6.268761
26.133007 0.872486 6.278754
26.324387 0.872914 6.270238
26.497215 0.873300 6.277757
26.689425 0.873730 6.271909
26.869320 0.874132 6.277103
27.078344 0.874600 6.261956
27.303940 0.875104 6.236395
27.568787 0.875696 6.184022
27.808651 0.876233 6.152541
28.065395 0.876807 6.111126
28.309908 0.877354 6.080980
28.545319 0.877880 6.059619
28.774790 0.878394 6.044619
28.985134 0.878864 6.045051
29.192610 0.879328 6.049294
29.393881 0.879778 6.059564
29.655083 0.880362 6.030870
29.890413 0.880888 6.022003
30.166224 0.881505 5.988290
30.462809 0.882168 5.943473
30.787033 0.882894 5.883440
31.092087 0.883576 5.838973
31.384520 0.884230 5.805496
31.633812 0.884787 5.802131
31.880226 0.885338 5.802765
32.144093 0.885928 5.794674
32.415325 0.886535 5.784383
32.717869 0.887211 5.757395
33.031414 0.887913 5.726535
33.414371 0.888769 5.657020
33.788116 0.889605 5.596659
34.131855 0.890374 5.557469
34.452240 0.891090 5.535037
34.738678 0.891731 5.535028
34.924839 0.892147 5.594598
25.179882 0.873153 6.345056
25.381271 0.873626 6.319625
25.589466 0.874115 6.290631
25.770164 0.874539 6.285643
25.973219 0.875016 6.264542
26.151663 0.875435 6.264684
26.327322 0.875847 6.268542
26.512831 0.876282 6.266306
26.695560 0.876711 6.267821
26.891417 0.877171 6.260971
27.078125 0.877609 6.262739
27.316557 0.878169 6.227635
27.542812 0.878700 6.203809
27.785826 0.879271 6.169864
28.058701 0.879911 6.116631
28.316193 0.880516 6.077139
28.554884 0.881076 6.053496
28.764765 0.881569 6.052362
28.981640 0.882078 6.048181
29.192396 0.882573 6.050141
29.420069 0.883107 6.042339
29.644939 0.883635 6.038466
29.900160 0.884234 6.016179
30.176001 0.884882 5.982517
30.455919 0.885539 5.948761
30.783474 0.886308 5.886523
31.088518 0.887024 5.842050
31.384314 0.887718 5.806409
31.643738 0.888327 5.796622
31.883406 0.888890 5.801564
32.137093 0.889485 5.799838
32.415119 0.890138 5.785327
32.724491 0.890864 5.754180
33.044903 0.891616 5.719221
33.403870 0.892459 5.664156
33.784477 0.893353 5.599683
34.131657 0.894168 5.558465
34.455502 0.894928 5.534032
34.762749 0.895649 5.522086
34.931591 0.896045 5.591661
25.179668 0.875520 6.345815
25.399672 0.876058 6.305237
25.607935 0.876566 6.276331
25.785574 0.877000 6.273929
25.960468 0.877427 6.275263
26.148306 0.877885 6.267943
26.320799 0.878306 6.274251
26.490450 0.878721 6.284209
26.688993 0.879205 6.273487
26.884829 0.879683 6.266615
27.087511 0.880178 6.256351
27.303511 0.880706 6.238010
27.558702 0.881329 6.192775
27.830837 0.881993 6.137671
28.071455 0.882581 6.108099
28.312738 0.883170 6.080327
28.531857 0.883705 6.070580
28.771101 0.884289 6.048628
28.965033 0.884762 6.060501
29.195482 0.885325 6.048752
29.409966 0.885849 6.050009
29.638113 0.886405 6.043858
29.903276 0.887053 6.014855
30.159149 0.887678 5.994514
30.462397 0.888418 5.945283
30.783274 0.889202 5.887458
31.105112 0.889987 5.832131
31.374012 0.890644 5.813837
31.646917 0.891310 5.795442
31.889980 0.891904 5.798278
32.136894 0.892506 5.800816
32.411518 0.893177 5.788412
32.727711 0.893949 5.753093
33.041283 0.894714 5.722297
33.413975 0.895624 5.659012
33.798050 0.896562 5.592556
34.138363 0.897393 5.555459
34.451851 0.898158 5.537093
34.724419 0.898824 5.545077
34.927925 0.899321 5.594704
25.188978 0.880248 6.337030
25.402807 0.880810 6.301534
25.592403 0.881308 6.287703
25.785608 0.881816 6.272732
25.976177 0.882317 6.261634
26.142048 0.882753 6.271670
26.336613 0.883264 6.260742
26.506319 0.883710 6.270761
26.676317 0.884157 6.281963
26.872110 0.884671 6.275026
27.081146 0.885221 6.259895
27.303543 0.885805 6.236740
27.565170 0.886493 6.186744
27.808254 0.887132 6.152893
28.074718 0.887832 6.104445
28.332264 0.888509 6.065020
28.538399 0.889051 6.064616
28.764582 0.889645 6.051892
28.984737 0.890224 6.045418
29.195503 0.890778 6.047390
29.416586 0.891359 6.044117
29.644756 0.891959 6.037982
29.883375 0.892586 6.026845
30.175816 0.893354 5.982023
30.452394 0.894081 5.950465
30.783287 0.894951 5.886018
31.105122 0.895797 5.830677
31.374020 0.896504 5.812369
31.646923 0.897221 5.793961
31.876440 0.897824 5.805299
32.170860 0.898598 5.778173
32.425148 0.899266 5.778498
32.717472 0.900035 5.757811
33.044708 0.900895 5.718678
33.410542 0.901856 5.659499
33.780838 0.902830 5.601168
34.152157 0.903806 5.545760
34.472599 0.904648 5.523420
34.762554 0.905410 5.521514
34.927921 0.905844 5.593064
25.167295 0.881016 6.354904
25.374846 0.881569 6.324365
25.604809 0.882181 6.277758
25.766817 0.882612 6.287826
25.972996 0.883161 6.264223
26.135710 0.883593 6.276717
26.311317 0.884061 6.280505
26.487270 0.884529 6.285528
26.688980 0.885066 6.272354
26.872063 0.885553 6.275135
27.077900 0.886101 6.262406
27.322752 0.886752 6.222524
27.555464 0.887371 6.193976
27.808208 0.888044 6.153004
28.064953 0.888727 6.111595
28.322468 0.889413 6.072127
28.538353 0.889987 6.064731
28.754723 0.890563 6.058918
28.971569 0.891140 6.054690
29.192167 0.891727 6.049781
29.409941 0.892306 6.048755
29.634779 0.892905 6.044838
29.880009 0.893557 6.029197
30.142471 0.894256 6.004311
30.459026 0.895098 5.946183
30.793287 0.895988 5.879580
31.078211 0.896746 5.848184
31.367239 0.897515 5.816812
31.626617 0.898205 5.806948
31.886559 0.898897 5.799041
32.140255 0.899572 5.797327
32.414886 0.900303 5.784926
32.707188 0.901081 5.764196
33.065205 0.902033 5.706397
33.400204 0.902925 5.665796
33.798000 0.903983 5.591108
34.152115 0.904926 5.545898
34.441429 0.905696 5.541641
34.741707 0.906495 5.533617
34.924400 0.906981 5.595185
25.195171 0.882390 6.331443
25.387310 0.882912 6.313648
25.601755 0.883493 6.279648
25.779371 0.883975 6.277206
25.976189 0.884509 6.261108
26.142059 0.884959 6.271141
26.311377 0.885418 6.279866
26.503162 0.885938 6.272666
26.701750 0.886477 6.261986
26.884872 0.886974 6.264819
27.071560 0.887480 6.266551
27.313179 0.888136 6.229023
27.552299 0.888784 6.195681
27.775965 0.889391 6.175925
28.068247 0.890184 6.108566
28.312769 0.890847 6.078432
28.557968 0.891512 6.050132
28.767859 0.892082 6.049004
28.965059 0.892617 6.058561
29.198799 0.893251 6.044521
29.409992 0.893824 6.048038
29.667933 0.894523 6.021659
29.883381 0.895108 6.026236
30.165831 0.895874 5.988059
30.469095 0.896697 5.938833
30.763195 0.897494 5.898515
31.091690 0.898385 5.838733
31.360550 0.899115 5.820361
31.640171 0.899873 5.797601
31.893373 0.900560 5.794005
32.153885 0.901267 5.788085
32.401310 0.901938 5.792528
32.700401 0.902749 5.767563
33.044708 0.903683 5.718002
33.407108 0.904666 5.660870
33.780834 0.905680 5.600476
34.159054 0.906706 5.541013
34.458755 0.907519 5.530752
34.741745 0.908287 5.532765
34.917488 0.908763 5.598285
25.173384 0.888609 6.348821
25.390261 0.889251 6.310722
25.579809 0.889813 6.296831
25.769844 0.890376 6.284296
25.966629 0.890959 6.268153
26.157633 0.891524 6.258374
26.330158 0.892035 6.264707
26.493507 0.892519 6.279581
26.682528 0.893079 6.276143
26.887905 0.893687 6.261981
27.077801 0.894250 6.261322
27.316233 0.894956 6.226204
27.552143 0.895655 6.195246
27.821026 0.896451 6.142449
28.061609 0.897164 6.112813
28.315859 0.897917 6.075654
28.554548 0.898624 6.051998
28.780779 0.899294 6.039337
28.961618 0.899830 6.060392
29.195349 0.900522 6.046334
29.419731 0.901186 6.040794
29.634668 0.901823 6.043646
29.896500 0.902599 6.016838
30.165668 0.903396 5.987581
30.462252 0.904274 5.942756
30.789822 0.905245 5.880527
31.084806 0.906119 5.842587
31.370487 0.906965 5.813390
31.633249 0.907743 5.801385
31.872889 0.908453 5.806271
32.136738 0.909234 5.798144
32.407951 0.910038 5.787816
32.700233 0.910903 5.767044
33.041115 0.911913 5.719547
33.393208 0.912956 5.668557
33.797871 0.914155 5.589742
34.138180 0.915163 5.552615
34.455128 0.916102 5.532212
34.734634 0.916929 5.536202
34.927742 0.917501 5.591793
25.145042 0.904331 6.371446
25.371122 0.905143 6.325648
25.601074 0.905968 6.279015
25.788061 0.906640 6.269074
25.981773 0.907335 6.255497
26.160250 0.907976 6.255667
26.345411 0.908641 6.252184
26.502481 0.909205 6.272010
26.701065 0.909918 6.261324
26.887377 0.910587 6.261738
27.083672 0.911292 6.256272
27.299658 0.912067 6.237896
27.538736 0.912925 6.204491
27.788195 0.913821 6.165797
28.044874 0.914743 6.124289
28.302324 0.915667 6.084723
28.554012 0.916571 6.051740
28.786785 0.917407 6.034472
29.003731 0.918186 6.030375
29.214556 0.918943 6.032423
29.429098 0.919713 6.033746
29.660612 0.920544 6.025414
29.882683 0.921341 6.025493
30.155142 0.922320 5.993958
30.424982 0.923289 5.966702
30.752443 0.924464 5.904312
31.077549 0.925632 5.846650
31.363209 0.926657 5.817421
31.649593 0.927686 5.790381
31.919756 0.928656 5.776180
32.166756 0.929543 5.778827
32.441456 0.930529 5.766531
32.706516 0.931481 5.762578
33.030300 0.932643 5.725455
33.375500 0.933883 5.678524
33.731941 0.935162 5.628183
34.151428 0.936669 5.544208
34.485706 0.937869 5.513815
34.775692 0.938910 5.511956
34.930664 0.939466 5.589497
25.128998 0.924979 6.383210
25.336409 0.925895 6.352489
25.569349 0.926923 6.303187
25.784340 0.927872 6.270614
25.981174 0.928741 6.254532
26.191103 0.929668 6.229984
26.360592 0.930416 6.238917
26.552547 0.931264 6.231927
26.716352 0.931987 6.248182
26.899529 0.932795 6.251073
27.099060 0.933676 6.243255
27.305470 0.934587 6.232104
27.534908 0.935600 6.205841
27.752060 0.936558 6.190721
28.008625 0.937691 6.149048
28.265961 0.938827 6.109316
28.527315 0.939981 6.069214
28.795979 0.941167 6.026487
29.019512 0.942154 6.017850
29.250130 0.943172 6.006311
29.448280 0.944046 6.019086
29.679853 0.945069 6.010831
29.898661 0.946034 6.013219
30.151186 0.947149 5.995048
30.421019 0.948340 5.967767
30.714981 0.949638 5.927226
31.046694 0.951102 5.865044
31.365942 0.952512 5.814089
31.665842 0.953836 5.778479
31.949596 0.955088 5.755824
32.200073 0.956194 5.756481
32.454437 0.957317 5.756917
32.726360 0.958517 5.748846
33.039925 0.959901 5.718008
33.340534 0.961228 5.697818
33.717529 0.962893 5.635075
34.092129 0.964546 5.577342
34.474670 0.966235 5.518549
34.795841 0.967653 5.498683
34.947392 0.968322 5.578288
25.118418 0.954362 6.392017
25.313389 0.955451 6.371369
25.518240 0.956595 6.344592
25.745548 0.957865 6.301819
25.954790 0.959034 6.275642
26.167778 0.960224 6.248525
26.384533 0.961434 6.220512
26.589241 0.962578 6.203866
26.756350 0.963511 6.217866
26.974730 0.964731 6.194375
27.148926 0.965704 6.206114
27.342667 0.966786 6.204749
27.549692 0.967943 6.195282
27.741058 0.969011 6.199121
27.981392 0.970354 6.169147
28.212645 0.971646 6.147967
28.467318 0.973068 6.112285
28.739071 0.974586 6.067011
29.008360 0.976091 6.026099
29.288301 0.977654 5.980414
29.506371 0.978872 5.979810
29.744740 0.980204 5.967336
29.957102 0.981390 5.974486
30.199816 0.982746 5.963238
30.413021 0.983937 5.973624
30.686872 0.985466 5.946194
30.968136 0.987037 5.916505
31.283798 0.988801 5.867386
31.603737 0.990588 5.818577
31.951666 0.992531 5.755225
32.270065 0.994310 5.713631
32.545052 0.995846 5.701798
32.806976 0.997309 5.700394
33.059143 0.998718 5.707175
33.342644 1.000301 5.697362
33.668030 1.002119 5.665243
34.008011 1.004018 5.627559
34.373051 1.006057 5.578470
34.777184 1.008314 5.510324
34.904350 1.009025 5.603714
25.092392 0.995534 6.410580
25.293478 0.996988 6.384757
25.488918 0.998402 6.365420
25.691137 0.999864 6.342496
25.890787 1.001308 6.323528
26.119280 1.002960 6.283763
26.342180 1.004573 6.250614
26.568914 1.006212 6.216668
26.783613 1.007765 6.194125
26.995712 1.009299 6.175572
27.195564 1.010744 6.168182
27.395880 1.012193 6.162236
27.596642 1.013645 6.157741
27.778471 1.014960 6.168856
27.960606 1.016277 6.181260
28.198294 1.017996 6.155314
28.420321 1.019602 6.142732
28.672304 1.021424 6.111059
28.921705 1.023228 6.083576
29.204674 1.025274 6.035223
29.485193 1.027303 5.991299
29.763220 1.029314 5.951770
30.012156 1.031114 5.934447
30.251699 1.032847 5.925644
30.481754 1.034510 5.925236
30.729013 1.036299 5.915593
30.963383 1.037993 5.916497
31.245356 1.040033 5.888925
31.534788 1.042126 5.859224
31.848660 1.044396 5.816841
32.210918 1.047016 5.747296
32.550430 1.049471 5.695304
32.849926 1.051637 5.670981
33.146706 1.053784 5.651035
33.437298 1.055885 5.637480
33.707878 1.057842 5.638390
33.992760 1.059902 5.633256
34.305882 1.062167 5.614221
34.668232 1.064787 5.569692
34.927223 1.066660 5.587392
25.182747 1.055679 6.334053
25.346939 1.057254 6.338943
25.489662 1.058623 6.362556
25.666901 1.060323 6.359632
25.872738 1.062298 6.335595
26.063431 1.064128 6.325415
26.257740 1.065992 6.314147
26.465191 1.067982 6.294502
26.698610 1.070221 6.256933
26.923178 1.072376 6.228354
27.180367 1.074843 6.177415
27.393471 1.076888 6.161857
27.639297 1.079246 6.124120
27.869707 1.081457 6.100030
28.071575 1.083394 6.098766
28.260866 1.085209 6.108288
28.473312 1.087248 6.102939
28.689491 1.089322 6.096842
28.906143 1.091400 6.092331
29.129843 1.093546 6.084860
29.387039 1.096014 6.056439
29.641605 1.098456 6.032208
29.939980 1.101319 5.980889
30.249229 1.104286 5.925224
30.549398 1.107165 5.878562
30.816944 1.109732 5.856095
31.071712 1.112176 5.844353
31.323683 1.114594 5.836687
31.566059 1.116919 5.837348
31.846155 1.119606 5.816398
32.103146 1.122072 5.812387
32.401516 1.124934 5.785123
32.738159 1.128164 5.737226
33.113369 1.131764 5.669199
33.479378 1.135275 5.610304
33.815441 1.138499 5.572652
34.114403 1.141368 5.559896
34.396702 1.144076 5.559486
34.683006 1.146823 5.559235
34.924656 1.149141 5.586905
25.163168 1.144943 6.348004
25.383127 1.147835 6.307373
25.588234 1.150532 6.280928
25.765827 1.152866 6.278461
25.965750 1.155495 6.259856
26.153624 1.157965 6.252581
26.316689 1.160109 6.266310
26.514847 1.162714 6.254282
26.703959 1.165200 6.250978
26.880735 1.167525 6.258688
27.077023 1.170105 6.253233
27.293003 1.172945 6.234866
27.512758 1.175834 6.215713
27.745996 1.178900 6.188740
28.002550 1.182274 6.147087
28.253380 1.185571 6.112035
28.521225 1.189093 6.067288
28.783339 1.192539 6.029185
29.006845 1.195477 6.020537
29.234144 1.198466 6.011262
29.475159 1.201635 5.994630
29.693583 1.204506 5.995519
29.912443 1.207384 5.998012
30.148373 1.210486 5.991028
30.404844 1.213858 5.972589
30.685371 1.217546 5.940773
30.969994 1.221288 5.908930
31.305866 1.225704 5.846895
31.625862 1.229911 5.798207
31.960306 1.234308 5.743490
32.224400 1.237780 5.735785
32.526501 1.241752 5.706984
32.795208 1.245285 5.701357
33.061039 1.248780 5.699840
33.344547 1.252507 5.690060
33.652733 1.256559 5.668172
33.992668 1.261028 5.630447
34.343826 1.265645 5.589353
34.754818 1.271049 5.517111
34.892372 1.272857 5.604498
34.918205 1.273196 5.755620
25.114609 1.250034 6.385029
25.290979 1.253095 6.379580
25.467756 1.256163 6.375374
25.660551 1.259509 6.359923
25.828770 1.262429 6.365739
26.060211 1.266446 6.323308
26.251366 1.269763 6.314546
26.496805 1.274023 6.265619
26.717636 1.277855 6.237975
26.955029 1.281975 6.199883
27.177155 1.285830 6.175573
27.428759 1.290197 6.131416
27.629644 1.293684 6.127134
27.834198 1.297234 6.121948
28.045683 1.300904 6.113555
28.260902 1.304639 6.104378
28.437494 1.307704 6.124586
28.663380 1.311624 6.111490
28.876682 1.315326 6.109220
29.126619 1.319664 6.083495
29.370611 1.323898 6.064172
29.648304 1.328718 6.024221
29.910185 1.333263 5.997552
30.239326 1.338975 5.928535
30.532791 1.344068 5.886312
30.823730 1.349118 5.848535
31.085239 1.353656 5.832548
31.347351 1.358205 5.818539
31.606680 1.362706 5.808657
31.849644 1.366923 5.811376
32.120224 1.371619 5.798998
32.391403 1.376325 5.788678
32.714363 1.381930 5.749157
33.034740 1.387490 5.714219
33.403969 1.393898 5.653012
33.770798 1.400265 5.596761
34.128281 1.406469 5.549476
34.455574 1.412149 5.523084
34.776691 1.417722 5.503230
25.114937 1.362356 6.380041
25.325430 1.366950 6.346838
25.542791 1.371694 6.310154
25.751471 1.376248 6.282568
25.941948 1.380405 6.271415
26.151764 1.384984 6.246802
26.349550 1.389301 6.233552
26.554159 1.393766 6.216845
26.746590 1.397966 6.211344
26.920330 1.401758 6.221719
27.135946 1.406463 6.202089
27.329664 1.410691 6.200758
27.527012 1.414998 6.198445
27.737696 1.419596 6.188118
27.952114 1.424276 6.176985
28.173538 1.429108 6.162764
28.418314 1.434450 6.133957
28.657221 1.439664 6.111592
28.939379 1.445822 6.061262
29.205954 1.451640 6.024467
29.473278 1.457474 5.989698
29.754580 1.463614 5.947980
29.996857 1.468901 5.935189
30.226374 1.473910 5.933075
30.506437 1.480023 5.899632
30.723635 1.484763 5.909892
30.981497 1.490391 5.895669
31.233210 1.495884 5.887709
31.512476 1.501979 5.864497
31.802574 1.508310 5.837033
32.120556 1.515250 5.794886
32.446194 1.522357 5.751012
32.789768 1.529855 5.699255
33.134296 1.537374 5.650193
33.486614 1.545064 5.599722
33.784836 1.551572 5.584646
34.100952 1.558471 5.561742
34.379749 1.564556 5.563391
34.665997 1.570803 5.563173
34.980583 1.577668 5.549314
25.171963 1.498186 6.328060
25.370256 1.503573 6.305254
25.547323 1.508384 6.301466
25.712299 1.512865 6.308919
25.912046 1.518292 6.290188
26.068306 1.522537 6.307492
26.278429 1.528245 6.284096
26.444807 1.532765 6.296443
26.643223 1.538156 6.285652
26.864433 1.544165 6.259386
27.051083 1.549236 6.261173
27.286232 1.555624 6.228479
27.512405 1.561769 6.204660
27.739185 1.567930 6.182520
28.011911 1.575339 6.129225
28.249765 1.581800 6.103657
28.501295 1.588634 6.070599
28.750261 1.595397 6.041738
29.013020 1.602536 6.005598
29.253494 1.609069 5.987370
29.478064 1.615170 5.982236
29.696495 1.621104 5.983253
29.925318 1.627320 5.979181
30.167936 1.633911 5.967939
30.397747 1.640154 5.967320
30.661499 1.647320 5.946532
30.942675 1.654958 5.916883
31.214474 1.662342 5.895858
31.510557 1.670386 5.861900
31.837879 1.679278 5.811069
32.169518 1.688288 5.760678
32.512291 1.697600 5.706581
32.821896 1.706011 5.676010
33.135689 1.714536 5.645766
33.450249 1.723082 5.617954
33.748360 1.731180 5.602775
34.033325 1.738922 5.597985
34.318855 1.746679 5.595374
34.636127 1.755298 5.577003
34.964523 1.764220 5.555154
25.062176 1.623136 6.411130
25.253874 1.629322 6.392924
25.442978 1.635423 6.378608
25.641932 1.641843 6.358155
25.828899 1.647876 6.349082
26.013168 1.653821 6.343817
26.248337 1.661409 6.300551
26.443106 1.667694 6.290805
26.663748 1.674813 6.263029
26.900949 1.682467 6.224805
27.132477 1.689938 6.193159
27.351845 1.697016 6.172786
27.591093 1.704736 6.139790
27.831030 1.712478 6.108584
28.058691 1.719824 6.088557
28.273943 1.726769 6.079541
28.502722 1.734151 6.062836
28.741873 1.741868 6.040920
28.948849 1.748546 6.043677
29.172672 1.755768 6.036569
29.400288 1.763112 6.028853
29.635025 1.770686 6.018333
29.863655 1.778064 6.014023
30.116068 1.786208 5.995892
30.369081 1.794372 5.979664
30.659512 1.803743 5.941283
30.944023 1.812923 5.909481
31.242735 1.822562 5.871229
31.562506 1.832880 5.822422
31.883175 1.843227 5.776103
32.221699 1.854150 5.721711
32.523743 1.863896 5.693058
32.843594 1.874216 5.656315
33.133469 1.883569 5.640679
33.417122 1.892722 5.631375
33.701370 1.901894 5.624238
34.010334 1.911863 5.605105
34.316525 1.921743 5.590372
34.630302 1.931867 5.574016
34.962128 1.942574 5.550195
25.043089 1.769324 6.418184
25.250212 1.777220 6.387304
25.433077 1.784191 6.378035
25.647596 1.792369 6.345085
25.859640 1.800453 6.316199
26.075447 1.808680 6.286398
26.285578 1.816690 6.263100
26.502621 1.824965 6.236454
26.726624 1.833504 6.206549
26.951277 1.842068 6.178299
27.157383 1.849925 6.166127
27.386440 1.858658 6.138740
27.590395 1.866433 6.132046
27.810947 1.874841 6.115035
28.019104 1.882776 6.109031
28.230972 1.890853 6.102214
28.436796 1.898699 6.101583
28.659384 1.907184 6.090934
28.879210 1.915565 6.084217
29.109386 1.924339 6.072296
29.353287 1.933637 6.053046
29.577944 1.942202 6.049098
29.849518 1.952555 6.015577
30.095211 1.961921 6.001859
30.378180 1.972708 5.965763
30.655220 1.983270 5.936213
30.946402 1.994370 5.900087
31.251823 2.006013 5.857570
31.564831 2.017946 5.813131
31.902391 2.030814 5.756221
32.203598 2.042297 5.725206
32.546394 2.055365 5.671329
32.835564 2.066389 5.653483
33.125389 2.077438 5.637856
33.426144 2.088903 5.618289
33.727577 2.100394 5.601040
34.008991 2.111122 5.598259
34.308235 2.122530 5.587582
34.632355 2.134886 5.565250
34.943302 2.146740 5.553355
25.112852 1.914383 6.352865
25.317116 1.923327 6.324869
25.515762 1.932024 6.303386
25.733683 1.941566 6.268353
25.908434 1.949217 6.269709
26.121256 1.958536 6.242645
26.303150 1.966500 6.241715
26.520239 1.976005 6.215200
26.715715 1.984564 6.207291
26.914835 1.993283 6.198372
27.136791 2.003001 6.174086
27.320875 2.011061 6.180091
27.540691 2.020685 6.161296
27.741709 2.029487 6.158279
27.943157 2.038307 6.156719
28.151525 2.047431 6.151958
28.392921 2.058000 6.125545
28.602289 2.067167 6.123971
28.838310 2.077501 6.105617
29.061768 2.087286 6.098123
29.315395 2.098391 6.071943
29.556456 2.108945 6.056659
29.808041 2.119961 6.036487
30.096836 2.132606 5.993832
30.379776 2.144994 5.957803
30.676870 2.158002 5.915194
30.947947 2.169872 5.892260
31.273523 2.184127 5.836863
31.569685 2.197094 5.803296
31.907215 2.211873 5.746469
32.181259 2.223872 5.732448
32.483128 2.237089 5.703722
32.806202 2.251235 5.664822
33.089077 2.263621 5.653266
33.372551 2.276032 5.643874
33.680683 2.289524 5.622376
33.989521 2.303046 5.603260
34.295589 2.316447 5.588542
34.602310 2.329877 5.576191
34.965240 2.345768 5.534546
25.137419 2.075222 6.321545
25.329359 2.084844 6.303805
25.509380 2.093869 6.297495
25.717897 2.104322 6.269976
25.892584 2.113079 6.271314
26.095905 2.123272 6.251641
26.268248 2.131912 6.258021
26.475708 2.142312 6.238731
26.661499 2.151626 6.237965
26.860422 2.161598 6.228860
27.072588 2.172234 6.211590
27.259659 2.181612 6.214977
27.482468 2.192781 6.193590
27.680056 2.202687 6.192729
27.897470 2.213586 6.179222
28.118660 2.224674 6.164984
28.366434 2.237095 6.133845
28.572432 2.247422 6.134509
28.814886 2.259576 6.111499
29.054680 2.271597 6.092582
29.295067 2.283648 6.075461
29.562485 2.297054 6.042176
29.833946 2.310663 6.008696
30.106142 2.324308 5.977287
30.399071 2.338993 5.934744
30.666065 2.352377 5.911958
30.947134 2.366468 5.882509
31.272650 2.382786 5.827160
31.551895 2.396785 5.804358
31.865635 2.412513 5.762406
32.173439 2.427943 5.727116
32.465034 2.442561 5.704706
32.784592 2.458581 5.667864
33.074200 2.473099 5.652131
33.378162 2.488337 5.630403
33.686256 2.503782 5.608983
34.012280 2.520126 5.579827
34.294174 2.534257 5.579327
34.618156 2.550499 5.557054
34.939384 2.566602 5.539282
25.071514 2.228335 6.365104
25.266304 2.239313 6.344611
25.433657 2.248744 6.348135
25.635651 2.260129 6.325343
25.810040 2.269957 6.326384
26.013058 2.281399 6.306413
26.197710 2.291806 6.302666
26.401747 2.303305 6.285574
26.599966 2.314476 6.274829
26.811399 2.326392 6.255857
27.001024 2.337080 6.255248
27.216684 2.349234 6.236897
27.426466 2.361057 6.224883
27.643202 2.373272 6.209683
27.857241 2.385335 6.198427
28.091255 2.398524 6.174756
28.342161 2.412664 6.141246
28.570921 2.425557 6.125751
28.800234 2.438481 6.111956
29.056376 2.452917 6.081671
29.293436 2.466277 6.066886
29.567415 2.481718 6.029172
29.838846 2.497016 5.995783
30.094389 2.511418 5.975548
30.373896 2.527171 5.941832
30.674210 2.544096 5.897133
30.941839 2.559179 5.876484
31.250465 2.576573 5.831973
31.539715 2.592875 5.802716
31.853363 2.610552 5.760783
32.140732 2.626747 5.738198
32.459377 2.644706 5.698927
32.768635 2.662136 5.668386
33.082073 2.679801 5.638173
33.399704 2.697702 5.608338
33.721535 2.715840 5.578933
34.013142 2.732274 5.570248
34.357143 2.751662 5.533666
34.670834 2.769341 5.517727
34.981724 2.786863 5.506198
25.004265 2.382402 6.410104
25.201891 2.394785 6.386873
25.384541 2.406230 6.377634
25.564514 2.417507 6.372195
25.769934 2.430379 6.348157
25.960232 2.442303 6.337977
26.163589 2.455045 6.319337
26.351683 2.466831 6.314393
26.559227 2.479836 6.296223
26.783222 2.493871 6.267495
26.985508 2.506546 6.257239
27.197884 2.519854 6.241292
27.404366 2.532792 6.231654
27.637121 2.547376 6.204646
27.864046 2.561595 6.184068
28.081825 2.575242 6.172169
28.319645 2.590143 6.147974
28.554829 2.604880 6.127862
28.790606 2.619653 6.109508
29.030251 2.634670 6.090642
29.290253 2.650961 6.060015
29.554260 2.667504 6.029115
29.812347 2.683676 6.004684
30.091032 2.701138 5.968913
30.360476 2.718021 5.941881
30.633949 2.735157 5.914716
30.911470 2.752547 5.887468
31.209864 2.771244 5.849394
31.492199 2.788935 5.824344
31.812410 2.809000 5.778046
32.113167 2.827845 5.746924
32.424873 2.847377 5.711829
32.720341 2.865891 5.689575
33.047249 2.886374 5.650976
33.378422 2.907126 5.612874
33.706997 2.927714 5.579401
34.029491 2.947922 5.552538
34.359646 2.968609 5.524170
34.697502 2.989779 5.494389
25.164694 2.581224 6.402499
25.359612 2.594896 6.383136
25.533241 2.607076 6.382668
25.754150 2.622571 6.346159
25.944366 2.635914 6.335995
26.157082 2.650835 6.310003
26.341965 2.663804 6.307560
26.555779 2.678802 6.284578
26.773355 2.694064 6.260755
26.975573 2.708248 6.250546
27.178270 2.722467 6.241806
27.397499 2.737844 6.222677
27.633402 2.754392 6.193372
27.847338 2.769398 6.182250
28.084475 2.786032 6.156383
28.312490 2.802027 6.139242
28.547598 2.818518 6.119192
28.780024 2.834822 6.103189
29.026146 2.852086 6.079823
29.272902 2.869395 6.058309
29.507069 2.885820 6.047636
29.768263 2.904142 6.020864
30.033453 2.922744 5.993861
30.315985 2.942562 5.957868
30.572554 2.960559 5.941542
30.869925 2.981418 5.901089
31.144594 3.000685 5.878038
31.430038 3.020708 5.850658
31.743221 3.042676 5.808446
32.040314 3.063516 5.779235
32.355129 3.085598 5.741827
32.657135 3.106783 5.715202
32.956451 3.127778 5.692981
33.294128 3.151465 5.650480
33.622383 3.174490 5.616741
33.965210 3.198538 5.577473
34.284748 3.220952 5.554954
34.636139 3.245600 5.516981
34.794189 3.256687 5.592566
25.153137 2.776683 6.395492
25.338663 2.791141 6.383708
25.540228 2.806849 6.360764
25.717352 2.820652 6.359164
25.916813 2.836195 6.341523
26.129387 2.852761 6.315507
26.317297 2.867405 6.310601
26.534147 2.884304 6.285180
26.722992 2.899021 6.283099
26.950514 2.916751 6.253557
27.146687 2.932039 6.249584
27.381807 2.950362 6.218552
27.591835 2.966729 6.208154
27.834661 2.985653 6.175846
28.049009 3.002357 6.166343
28.283354 3.020619 6.144519
28.524830 3.039437 6.119840
28.737497 3.056010 6.117572
28.986702 3.075431 6.091851
29.233267 3.094645 6.070272
29.473850 3.113394 6.055042
29.741488 3.134251 6.023772
30.003199 3.154646 5.998976
30.238934 3.173017 5.993783
30.525255 3.195329 5.957547
30.788906 3.215876 5.938720
31.096838 3.239873 5.893851
31.345015 3.259213 5.889946
31.654476 3.283329 5.849604
31.954607 3.306718 5.818007
32.241917 3.329108 5.797126
32.540108 3.352346 5.772205
32.869728 3.378033 5.730970
33.176254 3.401921 5.706691
33.500648 3.427201 5.674595
33.825836 3.452542 5.645031
34.165592 3.479019 5.609972
34.481976 3.503675 5.591534
34.792114 3.527844 5.579512
25.129150 2.983866 6.396927
25.299044 2.998515 6.397712
25.500418 3.015879 6.374712
25.717974 3.034638 6.340760
25.895447 3.049941 6.340535
26.111032 3.068530 6.312089
26.292528 3.084180 6.312107
26.496571 3.101774 6.296413
26.710657 3.120234 6.274968
26.931696 3.139293 6.250299
27.140547 3.157302 6.236816
27.353117 3.175631 6.222493
27.575865 3.194838 6.202659
27.825018 3.216321 6.165717
28.023077 3.233399 6.167952
28.283258 3.255834 6.127608
28.501837 3.274681 6.119175
28.740524 3.295263 6.098629
28.992928 3.317026 6.070779
29.236137 3.337998 6.051618
29.489841 3.359874 6.027552
29.737577 3.381235 6.009868
30.009132 3.404650 5.978543
30.288063 3.428702 5.944891
30.551052 3.451378 5.924314
30.841450 3.476418 5.888361
31.115845 3.500078 5.865437
31.407730 3.525247 5.833899
31.700365 3.550480 5.804611
31.986963 3.575192 5.781810
32.304779 3.602597 5.742330
32.623428 3.630073 5.705328
32.936073 3.657031 5.674946
33.270000 3.685824 5.634677
33.597931 3.714101 5.601100
33.930099 3.742743 5.568065
34.259628 3.771157 5.539640
34.596840 3.800233 5.509805
34.917530 3.827885 5.492503
25.137978 3.216932 6.366135
25.310963 3.233441 6.364567
25.518530 3.253252 6.336743
25.732946 3.273716 6.305477
25.913553 3.290953 6.302969
26.122837 3.310927 6.279638
26.316933 3.329452 6.270061
26.558947 3.352550 6.225452
26.773161 3.372995 6.204404
26.972027 3.391975 6.196942
27.206493 3.414353 6.164666
27.432016 3.435877 6.141267
27.661364 3.457766 6.117186
27.875189 3.478173 6.106544
28.112171 3.500791 6.081160
28.346539 3.523160 6.059869
28.588022 3.546207 6.035728
28.823603 3.568691 6.017979
29.063040 3.591543 5.999721
29.303068 3.614451 5.983260
29.560148 3.638988 5.957377
29.817896 3.663587 5.933444
30.079609 3.688565 5.909255
30.335331 3.712972 5.891458
30.588329 3.737118 5.877786
30.868652 3.763872 5.848653
31.136280 3.789415 5.830302
31.404537 3.815017 5.813992
31.690269 3.842288 5.789088
31.956408 3.867689 5.779064
32.267189 3.897350 5.743788
32.554970 3.924816 5.725516
32.863857 3.954296 5.697049
33.176907 3.984174 5.668928
33.490707 4.014123 5.643245
33.812111 4.044799 5.615959
34.137714 4.075874 5.589174
34.443363 4.105046 5.576893
34.787712 4.137911 5.545224
25.159288 3.435563 6.324671
25.350878 3.455493 6.308242
25.558510 3.477091 6.280709
25.744917 3.496482 6.272092
25.941154 3.516895 6.257401
26.153593 3.538993 6.231852
26.341425 3.558532 6.227413
26.545481 3.579758 6.212179
26.775425 3.603678 6.179115
26.980589 3.625019 6.166982
27.179865 3.645748 6.161123
27.392399 3.667857 6.147222
27.592600 3.688682 6.144322
27.819016 3.712234 6.124121
28.029850 3.734166 6.117260
28.250883 3.757158 6.104999
28.469187 3.779867 6.096679
28.681456 3.801947 6.094552
28.926901 3.827479 6.071248
29.153275 3.851027 6.063355
29.399908 3.876683 6.043676
29.653755 3.903088 6.021399
29.908234 3.929560 6.001050
30.163338 3.956096 5.982631
30.432377 3.984082 5.957401
30.705429 4.012486 5.932056
30.999268 4.043052 5.895860
31.283802 4.072649 5.868367
31.599365 4.105475 5.823915
31.902281 4.136985 5.790380
32.202579 4.168223 5.761297
32.527397 4.202011 5.719957
32.870087 4.237659 5.670819
33.220531 4.274113 5.620274
33.558231 4.309241 5.580650
33.876194 4.342317 5.555823
34.232738 4.379405 5.511383
34.569496 4.414436 5.481721
34.896671 4.448469 5.460640
25.138128 3.676643 6.312222
25.307909 3.695941 6.313411
25.509081 3.718807 6.290815
25.685896 3.738905 6.289566
25.881845 3.761178 6.274745
26.046928 3.779943 6.285923
26.243765 3.802316 6.273818
26.422136 3.822591 6.277722
26.610363 3.843986 6.275649
26.827599 3.868678 6.253318
27.045414 3.893437 6.232598
27.260605 3.917897 6.215867
27.479548 3.942783 6.198370
27.705482 3.968464 6.177805
27.928772 3.993845 6.161259
28.168812 4.021129 6.134790
28.412745 4.048856 6.107828
28.663851 4.077398 6.078131
28.918903 4.106390 6.048068
29.174646 4.135459 6.019942
29.454090 4.167222 5.978045
29.727736 4.198326 5.942764
29.995510 4.228764 5.914017
30.263983 4.259280 5.887319
30.529812 4.289495 5.864863
30.816317 4.322062 5.831401
31.073456 4.351289 5.819574
31.327810 4.380201 5.811844
31.609625 4.412234 5.789014
31.865120 4.441275 5.785264
32.165115 4.475375 5.756167
32.445499 4.507245 5.741902
32.733299 4.539958 5.725657
33.042202 4.575069 5.699308
33.375774 4.612985 5.661091
33.675903 4.647100 5.645738
34.052292 4.689883 5.588515
