# This PCD file was generated using the MATLAB® pcwrite function
# from Computer Vision Toolbox®.
# .PCD v.7 - Point Cloud Data file format
VERSION .7
FIELDS x y z
SIZE 4 4 4
TYPE F F F
COUNT 1 1 1
WIDTH 445
HEIGHT 1
VIEWPOINT 0 0 0 1 0 0 0
POINTS 445
DATA ascii
33.882786 23.166998 10.525438
33.184895 23.154873 10.548712
33.756924 23.537132 10.488881
32.426903 23.131184 10.593676
32.962780 23.497154 10.540889
33.562328 23.906603 10.468598
33.939774 24.164375 10.489839
31.684692 23.065363 10.651793
32.206902 23.429163 10.597484
32.782948 23.830467 10.527026
33.344421 24.221619 10.468721
33.806904 24.543810 10.455561
30.979687 23.015804 10.697947
31.445152 23.346609 10.660514
32.019493 23.754791 10.583030
32.554672 24.135139 10.527917
33.112438 24.531542 10.469589
33.668045 24.926411 10.418249
30.733393 23.312551 10.704193
31.253696 23.690195 10.642026
31.765732 24.061836 10.589100
32.306282 24.454174 10.530107
32.887741 24.876205 10.460512
33.476372 25.303442 10.394511
33.859344 25.581408 10.416000
30.032536 23.228098 10.760295
30.560640 23.618748 10.687640
31.047152 23.978626 10.638666
31.577143 24.370670 10.576835
32.101959 24.758886 10.523073
32.676552 25.183922 10.454835
33.264374 25.618744 10.387696
33.724506 25.959110 10.377723
29.363668 23.159637 10.809239
29.863180 23.536266 10.742119
30.342505 23.897676 10.689444
30.828718 24.264280 10.639201
31.349049 24.656609 10.579979
31.909676 25.079321 10.509803
32.468262 25.500494 10.446787
33.024765 25.920094 10.390892
33.600433 26.354149 10.333581
28.681503 23.116499 10.858299
29.197151 23.513626 10.776791
29.594267 23.819464 10.753949
30.090788 24.201859 10.691929
30.615189 24.605726 10.623496
31.119528 24.994143 10.569591
31.636757 25.392487 10.515973
32.163891 25.798456 10.464097
32.761242 26.258509 10.389507
33.341515 26.705404 10.328568
33.723164 26.999331 10.352834
28.052210 23.052200 10.898811
28.533720 23.430124 10.825952
28.924326 23.736700 10.799971
29.416458 24.122961 10.732889
29.879786 24.486614 10.684196
30.373688 24.874264 10.627459
30.871433 25.264929 10.574710
31.402870 25.682039 10.513365
31.980066 26.135063 10.438990
32.546299 26.579485 10.375728
33.116482 27.027004 10.317318
33.639561 27.437553 10.284179
27.425234 23.011089 10.935490
27.869902 23.367275 10.873060
28.259663 23.679482 10.841301
28.723576 24.051085 10.780015
29.147129 24.390358 10.742338
29.621529 24.770361 10.686847
30.132206 25.179422 10.620879
30.655634 25.598698 10.555286
31.168144 26.009228 10.500394
31.723049 26.453716 10.433544
32.287819 26.906107 10.368994
32.856518 27.361647 10.309325
33.444016 27.832243 10.248611
27.247766 23.291075 10.916549
27.631025 23.603899 10.881880
28.073212 23.964823 10.824048
28.478292 24.295460 10.788506
28.945431 24.676748 10.729369
29.413420 25.058735 10.675286
29.893963 25.450964 10.621073
30.369467 25.839083 10.574626
30.904568 26.275846 10.508025
31.458269 26.727791 10.439751
32.009979 27.178110 10.378732
32.598038 27.658098 10.309134
33.213692 28.160612 10.235158
33.626106 28.497232 10.249433
26.654684 23.230017 10.949655
27.002647 23.519449 10.926204
27.434887 23.878984 10.866462
27.824594 24.203140 10.831881
28.281565 24.583244 10.770517
28.704588 24.935112 10.730107
29.157373 25.311737 10.681144
29.651669 25.722889 10.618932
30.164328 26.149315 10.554429
30.672058 26.571642 10.498065
31.236164 27.040861 10.423524
31.777855 27.491436 10.365030
32.335094 27.954945 10.306392
32.934315 28.453371 10.237079
33.464016 28.893972 10.202721
26.049128 23.172243 10.992126
26.390728 23.462116 10.966166
26.784353 23.796139 10.918767
27.181574 24.133209 10.874285
27.593847 24.483055 10.827321
28.006866 24.833530 10.784868
28.478125 25.233431 10.720308
28.938738 25.624294 10.666192
29.377085 25.996264 10.627523
29.862383 26.408075 10.573151
30.403484 26.867241 10.500080
30.957138 27.337057 10.427996
31.511765 27.807699 10.362034
32.064423 28.276672 10.303419
32.649990 28.773569 10.237725
33.280220 29.308365 10.160784
25.454739 23.081989 11.041581
25.821251 23.398844 10.997358
26.168640 23.699167 10.967052
26.587523 24.061296 10.905618
26.947580 24.372570 10.877807
27.365135 24.733551 10.826653
27.817642 25.124750 10.763934
28.225346 25.477213 10.727530
28.676594 25.867325 10.675895
29.160122 26.285339 10.614969
29.658840 26.716488 10.553001
30.167046 27.155838 10.492777
30.699127 27.615828 10.428210
31.232117 28.076605 10.369569
31.800585 28.568052 10.302270
32.404648 29.090271 10.226924
33.006832 29.610868 10.159510
33.488415 30.027203 10.147783
24.870371 23.009790 11.088384
25.258280 23.351753 11.027146
25.571318 23.627714 11.008821
25.985922 23.993212 10.943048
26.331070 24.297480 10.916821
26.764101 24.679218 10.851598
27.138741 25.009485 10.819859
27.556391 25.377666 10.772049
27.988932 25.758976 10.722232
28.470411 26.183426 10.654882
28.918724 26.578638 10.608504
29.390532 26.994562 10.556876
29.922918 27.463892 10.483948
30.444851 27.924004 10.421996
30.987656 28.402517 10.357275
31.525658 28.876795 10.301085
32.121780 29.402309 10.226955
32.747566 29.953976 10.147718
33.319855 30.458481 10.097692
24.700146 23.290627 11.060959
24.996098 23.556578 11.046274
25.384228 23.905361 10.987670
25.736948 24.222324 10.951792
26.137693 24.582445 10.896092
26.500114 24.908127 10.864221
26.919092 25.284632 10.809103
27.344450 25.666868 10.755998
27.736914 26.019547 10.723654
28.197460 26.433407 10.664141
28.658836 26.848013 10.609819
29.152016 27.291195 10.546597
29.646065 27.735161 10.488949
30.157919 28.195127 10.429388
30.707432 28.688934 10.359597
31.283396 29.206511 10.285095
31.857504 29.722418 10.218333
32.483711 30.285147 10.136803
33.093891 30.833467 10.069397
24.155298 23.222054 11.097368
24.445454 23.487740 11.080699
24.815861 23.826910 11.025321
25.156700 24.139008 10.989850
25.525753 24.476940 10.944072
25.873388 24.795258 10.913630
26.312986 25.197786 10.841532
26.675814 25.530016 10.812629
27.094791 25.913662 10.760852
27.545130 26.326023 10.699176
27.954504 26.700876 10.662345
28.448263 27.152998 10.591190
28.887043 27.554777 10.551307
29.402098 28.026396 10.482233
29.918058 28.498846 10.419042
30.462969 28.997807 10.349415
31.011620 29.500189 10.284807
31.592140 30.031755 10.213282
32.190533 30.579687 10.141314
32.820946 31.156939 10.063383
33.350662 31.641981 10.034058
24.212387 23.738605 11.077651
24.590258 24.091696 11.016519
24.895199 24.376638 10.998302
25.290871 24.746361 10.936874
25.657200 25.088665 10.895337
26.024193 25.431591 10.857967
26.463264 25.841867 10.789298
26.853655 26.206656 10.749930
27.269522 26.595249 10.703031
27.694397 26.992260 10.656943
28.142117 27.410618 10.605330
28.612759 27.850395 10.548595
29.106392 28.311655 10.487146
29.636976 28.807442 10.415142
30.174049 29.309294 10.346795
30.728743 29.827608 10.277354
31.312252 30.372852 10.202329
31.896736 30.919004 10.134055
32.515717 31.497389 10.058554
33.141296 32.081944 9.987926
24.019419 23.986769 11.062428
24.331930 24.284233 11.034711
24.682877 24.618282 10.990537
25.037197 24.955542 10.948971
25.454607 25.352856 10.879333
25.821188 25.701786 10.840754
26.182972 26.046150 10.809111
26.616289 26.458605 10.746569
27.036757 26.858828 10.695697
27.471651 27.272783 10.643106
27.896353 27.677034 10.600737
28.351948 28.110695 10.549170
28.868788 28.602650 10.475034
29.389303 29.098103 10.405664
29.899696 29.583921 10.347281
30.468901 30.125719 10.269299
31.025265 30.655296 10.203951
31.621283 31.222618 10.128535
32.207199 31.780323 10.064742
32.871742 32.412868 9.975613
33.315067 32.834850 9.984860
24.094540 24.521280 11.030704
24.469009 24.884750 10.972168
24.814692 25.220280 10.933535
25.190584 25.585131 10.883526
25.580650 25.963741 10.830973
25.966051 26.337822 10.785686
26.341330 26.702078 10.750274
26.763256 27.111612 10.696568
27.202200 27.537663 10.639893
27.625643 27.948669 10.596137
28.098728 28.407860 10.534234
28.591709 28.886360 10.469008
29.118269 29.397455 10.394569
29.634834 29.898848 10.331253
30.157738 30.406391 10.271568
30.744473 30.975893 10.190434
31.321236 31.535717 10.120951
31.918159 32.115108 10.050096
32.568268 32.746120 9.964438
33.147865 33.308697 9.915919
24.222908 25.087822 10.982799
24.605410 25.465906 10.922851
24.948683 25.805216 10.888355
25.324598 26.176792 10.841289
25.730616 26.578121 10.783614
26.137392 26.980202 10.730713
26.542225 27.380360 10.683927
26.969259 27.802464 10.631372
27.397043 28.225309 10.583847
27.863283 28.686165 10.523401
28.343830 29.161163 10.462135
28.827908 29.639652 10.405302
29.350687 30.156395 10.336934
29.912296 30.711521 10.257738
30.447739 31.240782 10.197210
31.038391 31.824614 10.119378
31.630026 32.409416 10.048572
32.271652 33.043636 9.964113
32.914322 33.678886 9.887306
24.008257 25.314623 10.975074
24.329351 25.637743 10.946271
24.746103 26.057127 10.870914
25.089617 26.402807 10.839193
25.481421 26.797083 10.786946
25.873947 27.192085 10.739340
26.291096 27.611868 10.684395
26.706339 28.029732 10.635718
27.148966 28.475151 10.578979
27.613733 28.942852 10.517247
28.084669 29.416761 10.458523
28.580517 29.915737 10.394169
29.098673 30.437164 10.325872
29.617710 30.959476 10.263776
30.180641 31.525959 10.188689
30.763367 32.112362 10.112073
31.349752 32.702450 10.041286
31.985687 33.342396 9.956841
32.619949 33.980663 9.881179
33.157734 34.521843 9.853332
24.093935 25.906000 10.930966
24.451569 26.273212 10.885073
24.864864 26.697577 10.814429
25.226511 27.068911 10.776055
25.617689 27.470566 10.727158
26.006935 27.870237 10.684275
26.441656 28.316601 10.623677
26.877159 28.763769 10.568307
27.337219 29.236153 10.506622
27.795435 29.706640 10.451748
28.278288 30.202427 10.391140
28.785856 30.723591 10.325254
29.315550 31.267471 10.255769
29.859446 31.825933 10.186691
30.433563 32.415428 10.111179
31.027317 33.025085 10.034461
31.643415 33.657688 9.955749
32.247124 34.277561 9.890185
24.218369 26.494301 10.881026
24.601898 26.895224 10.824174
24.999151 27.310492 10.765128
25.384134 27.712934 10.717636
25.785446 28.132446 10.666797
26.210972 28.577271 10.608964
26.634645 29.020157 10.557592
27.069523 29.474758 10.506226
27.539232 29.965769 10.443667
28.012388 30.460382 10.385572
28.517902 30.988821 10.318431
29.026905 31.520908 10.256241
29.581593 32.100750 10.179851
30.163622 32.709175 10.098407
30.754559 33.326912 10.020591
31.364996 33.965034 9.941961
31.822617 34.443409 9.936564
24.338747 27.134775 10.820572
24.708771 27.529219 10.773762
25.107801 27.954582 10.716617
25.504988 28.377981 10.665685
25.902878 28.802130 10.619610
26.350632 29.279432 10.553691
26.806963 29.765879 10.489424
27.271896 30.261496 10.426959
27.716835 30.735798 10.380217
28.206753 31.258047 10.317954
28.744411 31.831190 10.239811
29.269945 32.391403 10.174314
29.830320 32.988762 10.099906
30.415176 33.612213 10.021919
30.972155 34.205952 9.963828
24.106705 27.380777 10.810626
24.473097 27.778666 10.763965
24.860556 28.199432 10.711018
25.264044 28.637608 10.654855
25.683615 29.093246 10.595779
26.103939 29.549706 10.541898
26.537830 30.020897 10.486798
26.977604 30.498476 10.434543
27.456726 31.018785 10.368979
27.926359 31.528791 10.314310
28.440639 32.087284 10.244780
28.966127 32.657944 10.176853
29.544241 33.285759 10.091799
30.118147 33.909000 10.016307
30.526897 34.352890 10.021627
24.209019 27.990391 10.765752
24.612803 28.437000 10.701881
25.007231 28.873260 10.648389
25.409964 29.318707 10.595867
25.826090 29.778967 10.541872
26.258184 30.256889 10.485375
26.711382 30.758152 10.424147
27.170458 31.265917 10.366101
27.648169 31.794292 10.305172
28.157343 32.357468 10.235628
28.687838 32.944229 10.162888
29.242285 33.557480 10.086169
29.751465 34.120663 10.037464
24.304348 28.646784 10.716763
24.716932 29.112253 10.651090
25.150331 29.601204 10.580097
25.541882 30.042942 10.536705
25.981833 30.539282 10.473855
26.415010 31.027983 10.420382
26.874119 31.545938 10.359883
27.334007 32.064774 10.305209
27.852777 32.650040 10.228361
28.357250 33.219173 10.165329
28.898027 33.829262 10.092132
29.277279 34.257126 10.100560
24.075298 28.899481 10.696898
24.451527 29.331720 10.648701
24.875530 29.818850 10.580261
25.292868 30.298319 10.521151
25.703485 30.770071 10.471225
26.139702 31.271231 10.413866
26.601608 31.801907 10.349578
27.064310 32.333492 10.291212
27.550287 32.891823 10.227818
28.057110 33.474102 10.161055
28.542194 34.031403 10.111470
24.194262 29.612717 10.629203
24.581604 30.066727 10.578108
24.964718 30.515781 10.534609
25.407482 31.034752 10.465222
25.838728 31.540226 10.407915
26.285509 32.063904 10.348682
26.745390 32.602940 10.289067
27.238184 33.180550 10.219582
27.731808 33.759136 10.156506
28.067535 34.152649 10.175675
24.292301 30.273094 10.581847
24.700417 30.760389 10.522569
25.114124 31.254362 10.466053
25.543161 31.766636 10.407337
26.011961 32.326389 10.334209
26.457155 32.857956 10.279591
26.942223 33.437134 10.211306
27.366861 33.944153 10.179445
24.028475 30.511473 10.574963
24.432140 31.002516 10.515799
24.838923 31.497349 10.460686
25.284954 32.039928 10.390656
25.705235 32.551178 10.340311
26.164862 33.110294 10.275764
26.618008 33.661530 10.220969
26.948324 34.063343 10.233478
24.126640 31.241074 10.514981
24.533297 31.745777 10.457286
24.973984 32.292713 10.387275
25.408298 32.831741 10.326935
25.857674 33.389465 10.265007
26.257607 33.885822 10.234701
24.263470 31.995567 10.444585
24.680344 32.522743 10.384851
25.126217 33.086586 10.315742
25.549263 33.621563 10.265044
25.845387 33.996037 10.285887
24.417494 32.787441 10.364490
24.821014 33.307343 10.315599
25.197201 33.792027 10.287062
24.077965 33.005745 10.369376
24.483219 33.538628 10.316547
24.730246 33.863449 10.354621
24.132429 33.689762 10.341780