# This PCD file was generated using the MATLAB® pcwrite function
# from Computer Vision Toolbox®.
# .PCD v.7 - Point Cloud Data file format
VERSION .7
FIELDS x y z
SIZE 4 4 4
TYPE F F F
COUNT 1 1 1
WIDTH 1194
HEIGHT 1
VIEWPOINT 0 0 0 1 0 0 0
POINTS 1194
DATA ascii
22.821167 22.000444 4.954727
22.838608 22.016415 5.259069
22.842684 22.020147 5.414172
22.841156 22.018747 5.573324
22.861370 22.037256 5.712831
22.881046 22.055273 5.852263
22.890173 22.063629 6.000083
22.891176 22.064547 6.154008
22.911684 22.083326 6.290948
22.924101 22.094694 6.434044
22.923306 22.093966 6.587272
22.937107 22.106604 6.727942
22.957993 22.125727 6.862403
22.963076 22.130381 7.008891
22.982916 22.148548 7.143169
22.989439 22.154520 7.287306
22.987690 22.152918 7.437136
23.003366 22.167273 7.573008
23.026274 22.188248 7.702980
23.020243 22.182726 7.854074
23.031761 22.193272 7.991488
23.045355 22.205719 8.126881
23.061050 22.220089 8.260291
23.071022 22.229221 8.397343
23.083096 22.240274 8.532407
23.094662 22.250866 8.667356
23.087317 22.244139 8.814873
23.108376 22.263422 8.942282
23.126339 22.279871 9.071472
23.125305 22.278923 9.212985
23.150253 22.301767 9.336740
23.145527 22.297440 9.479625
23.166883 22.316996 9.605027
23.158438 22.309261 9.749173
23.165476 22.315706 9.882864
22.463730 22.104658 1.126749
22.482431 22.122133 1.290565
22.511806 22.149582 1.441638
22.501795 22.140224 1.635176
22.516085 22.153576 1.800844
22.550341 22.185585 1.944037
22.558687 22.193384 2.114309
22.543177 22.178890 2.308755
22.568548 22.202599 2.458862
22.586334 22.219217 2.616151
22.596464 22.228682 2.780494
22.615276 22.246260 2.935027
22.633459 22.263250 3.089417
22.636860 22.266428 3.257836
22.651377 22.279991 3.414194
22.665253 22.292957 3.570369
22.678488 22.305325 3.726355
22.695866 22.321562 3.877536
22.707842 22.332752 4.033160
22.474079 22.114319 4.420815
22.447897 22.089853 4.608500
22.483727 22.123333 4.737089
22.754271 22.376135 4.649120
22.750946 22.373028 4.814811
22.783504 22.403450 4.947064
22.786230 22.405996 5.105659
22.785851 22.405642 5.266136
22.806944 22.425352 5.406841
22.805304 22.423817 5.566792
22.822786 22.440153 5.709358
22.854601 22.469881 5.839122
22.853619 22.468964 5.996277
22.856983 22.472107 6.148939
22.882236 22.495705 6.282689
22.889450 22.502443 6.430838
22.896080 22.508638 6.578773
22.897089 22.509581 6.730544
22.915174 22.526480 6.867952
22.930210 22.540529 7.007283
22.952339 22.561205 7.140560
22.956163 22.564777 7.287580
22.969618 22.577351 7.426558
22.972317 22.579872 7.573162
22.979572 22.586653 7.715677
23.001701 22.607328 7.846574
22.992447 22.598680 8.000143
23.021307 22.625647 8.125214
23.016088 22.620771 8.274531
23.044003 22.646852 8.399555
23.032486 22.636093 8.552073
23.054234 22.656412 8.680631
23.046801 22.649467 8.828959
23.080658 22.681105 8.948444
23.098383 22.697664 9.078677
23.097242 22.696600 9.221124
23.103462 22.702412 9.358109
23.114450 22.712679 9.491487
23.135532 22.732378 9.617945
23.140272 22.736807 9.754539
23.133888 22.730841 9.897637
22.477196 22.518831 1.065030
22.475483 22.517199 1.252506
22.488766 22.529842 1.422059
22.501333 22.541803 1.591374
22.506353 22.546583 1.767869
22.517467 22.557161 1.936657
22.543919 22.582338 2.088071
22.553663 22.591614 2.256449
22.565010 22.602413 2.422142
22.566402 22.603739 2.597214
22.601891 22.637516 2.736079
22.606560 22.641960 2.905889
22.622202 22.656849 3.063578
22.630167 22.664431 3.228137
22.642157 22.675840 3.387764
22.660574 22.693373 3.540218
22.661812 22.694550 3.708676
22.246733 22.299454 4.277755
22.240532 22.293552 4.447581
22.250334 22.302881 4.601157
22.137295 22.195284 4.869169
22.729551 22.759026 4.478803
22.731613 22.760988 4.641159
22.752350 22.780725 4.785568
22.755562 22.783781 4.945227
22.782436 22.809362 5.082843
22.794170 22.820532 5.233422
22.797979 22.824158 5.390258
22.788898 22.815512 5.557477
22.815998 22.841307 5.692523
22.830280 22.854900 5.838091
22.821754 22.846785 6.002301
22.837336 22.861616 6.145382
22.859827 22.883024 6.282177
22.874344 22.896841 6.425065
22.880823 22.903008 6.573911
22.886724 22.908625 6.722536
22.892046 22.913691 6.870941
22.906862 22.927792 7.011191
22.923674 22.943794 7.149367
22.937447 22.956903 7.289411
22.950699 22.969517 7.429336
22.955801 22.974373 7.574905
22.962896 22.981127 7.718352
22.982216 22.999516 7.852161
22.990814 23.007700 7.993429
23.006580 23.022705 8.128954
23.014139 23.029900 8.269933
23.021172 23.036592 8.410739
23.038010 23.052620 8.544119
23.044014 23.058334 8.684630
23.044308 23.058613 8.828522
23.051855 23.065798 8.966866
23.064106 23.077457 9.101549
23.065424 23.078712 9.243071
23.097610 23.109350 9.363738
23.105804 23.117147 9.499878
23.116129 23.126974 9.634189
23.120707 23.131332 9.771728
23.140606 23.150272 9.899156
22.435379 22.910881 1.045120
22.440231 22.915590 1.225773
22.462288 22.936998 1.386188
22.467907 22.942451 1.563791
22.486345 22.960348 1.726312
22.497311 22.970991 1.896003
22.507568 22.980947 2.065441
22.512548 22.985779 2.239460
22.544321 23.016619 2.384302
22.550226 23.022352 2.555453
22.557728 23.029631 2.723924
22.562212 23.033983 2.894479
22.593870 23.064711 3.036539
22.604017 23.074558 3.199629
22.613499 23.083761 3.362481
22.636391 23.105982 3.511256
22.642242 23.111660 3.675995
22.652140 23.121265 3.835898
22.668495 23.137140 3.988782
22.672379 23.140911 4.152764
22.682739 23.150967 4.309747
22.685314 23.153465 4.473175
22.715961 23.183212 4.609836
22.717291 23.184502 4.772822
22.737228 23.203852 4.918087
22.749369 23.215635 5.069751
22.739122 23.205690 5.240552
22.767025 23.232775 5.376801
22.757906 23.223921 5.544823
22.799377 23.264174 5.668274
22.798809 23.263622 5.827400
22.812336 23.276751 5.973773
22.820387 23.284565 6.124117
22.825388 23.289419 6.276297
22.842169 23.305706 6.418098
22.850983 23.314260 6.565842
22.861719 23.324682 6.711399
22.866922 23.329731 6.860755
22.889046 23.351204 6.996118
22.900663 23.362480 7.139266
22.924303 23.385427 7.272590
22.922297 23.383478 7.425129
22.932318 23.393204 7.567833
22.936749 23.397505 7.714164
22.955839 23.416033 7.849025
22.949036 23.409430 8.002439
22.959467 23.419554 8.142594
22.974489 23.434134 8.278954
22.996696 23.455690 8.409792
22.995373 23.454403 8.556816
23.016621 23.475027 8.687530
23.021961 23.480211 8.828843
23.037107 23.494913 8.962966
23.051781 23.509153 9.097022
23.060793 23.517900 9.234447
23.064117 23.521128 9.375144
23.079939 23.536484 9.507200
23.087479 23.543800 9.644223
23.104975 23.560783 9.774478
23.114172 23.569710 9.909629
22.430664 23.316301 1.001246
22.433167 23.318773 1.185278
22.446062 23.331520 1.356570
22.453766 23.339134 1.532541
22.476484 23.361591 1.691093
22.482769 23.367802 1.866558
22.501915 23.386726 2.027204
22.504507 23.389288 2.204532
22.540569 23.424932 2.345651
22.532635 23.417089 2.531992
22.553743 23.437954 2.687148
22.562731 23.446836 2.853935
22.580282 23.464186 3.011127
22.587946 23.471760 3.177449
22.599586 23.483265 3.338891
22.622238 23.505657 3.488662
22.625610 23.508989 3.656571
22.642374 23.525558 3.810593
22.658541 23.541538 3.964471
22.662313 23.545267 4.129369
22.667788 23.550676 4.291752
22.691603 23.574217 4.436223
22.686316 23.568991 4.606931
22.699429 23.581951 4.759836
22.733496 23.615625 4.893120
22.731087 23.613243 5.058689
22.752085 23.633997 5.202587
22.750826 23.632753 5.365471
22.751337 23.633259 5.525918
22.770628 23.652327 5.669357
22.786959 23.668468 5.814791
22.790548 23.672014 5.970402
22.795980 23.677383 6.123705
22.825346 23.706409 6.256498
22.822289 23.703388 6.415507
22.833397 23.714367 6.562197
22.836540 23.717474 6.714672
22.858921 23.739595 6.851158
22.865915 23.746510 6.999337
22.857418 23.738110 7.158931
22.888220 23.768555 7.287398
22.903580 23.783737 7.427396
22.908403 23.788504 7.574864
22.915192 23.795214 7.720238
22.934034 23.813839 7.856123
22.932201 23.812027 8.006721
22.950041 23.829659 8.142399
22.969938 23.849327 8.276217
22.979204 23.858484 8.417204
22.998150 23.877211 8.550917
22.988550 23.867722 8.704031
23.016737 23.895582 8.830516
23.011179 23.890089 8.979645
23.033319 23.911974 9.109546
23.042149 23.920700 9.247987
23.050486 23.928940 9.386292
23.055746 23.934139 9.526127
23.068274 23.946524 9.660820
23.080334 23.958443 9.795430
23.071125 23.949341 9.942944
22.422380 23.718767 1.146906
22.437328 23.733809 1.316653
22.449356 23.745914 1.488632
22.447252 23.743795 1.674963
22.473557 23.770266 1.829432
22.483494 23.780264 2.000673
22.501776 23.798660 2.162090
22.505814 23.802723 2.337615
22.518230 23.815220 2.503359
22.532270 23.829346 2.666532
22.547951 23.845125 2.827175
22.572189 23.869516 2.978363
22.575119 23.872465 3.150239
22.588905 23.886337 3.310331
22.595116 23.892588 3.477065
22.605307 23.902840 3.638996
22.617193 23.914801 3.798451
22.628456 23.926136 3.957703
22.639101 23.936848 4.116748
22.651482 23.949305 4.273375
22.677410 23.975397 4.416672
22.679159 23.977156 4.581712
22.692118 23.990196 4.735632
22.709248 24.007435 4.885088
22.718662 24.016909 5.040823
22.744226 24.042631 5.181530
22.754892 24.053366 5.334842
22.740927 24.039312 5.508840
22.767250 24.065800 5.647117
22.780994 24.079630 5.795693
22.782066 24.080708 5.954340
22.804398 24.103182 6.094445
22.806736 24.105534 6.250621
22.828022 24.126953 6.390544
22.826769 24.125692 6.548269
22.842093 24.141113 6.691915
22.856897 24.156010 6.835454
22.853914 24.153008 6.992442
22.872585 24.171797 7.131813
22.898201 24.197573 7.265411
22.888571 24.187881 7.425513
22.913191 24.212656 7.558961
22.934856 24.234459 7.694298
22.948547 24.248234 7.835161
22.961739 24.261509 7.975921
22.974428 24.274277 8.116575
22.968987 24.268803 8.269702
22.990740 24.290691 8.402896
23.004448 24.304485 8.541397
22.999926 24.299934 8.692063
23.015165 24.315269 8.828539
23.029936 24.330133 8.964949
23.036577 24.336817 9.106402
23.047829 24.348139 9.244315
23.030424 24.330624 9.400510
23.038092 24.338339 9.539689
23.065844 24.366266 9.665604
23.067423 24.367853 9.807864
23.076237 24.376724 9.945086
22.388613 24.155033 1.100227
22.396765 24.163401 1.278297
22.410830 24.177843 1.448774
22.417549 24.184742 1.626287
22.439152 24.206923 1.786659
22.440001 24.207794 1.968431
22.451323 24.219418 2.137944
22.475479 24.244223 2.293039
22.494532 24.263784 2.452757
22.503906 24.273409 2.621674
22.505789 24.275341 2.797300
22.525204 24.295277 2.954127
22.537161 24.307552 3.117709
22.555361 24.326239 3.274245
22.570667 24.341957 3.432911
22.553055 24.323872 3.622898
22.576313 24.347752 3.772090
22.592058 24.363918 3.927881
22.607212 24.379478 4.083523
22.621778 24.394434 4.239012
22.624052 24.396767 4.405221
22.646807 24.420132 4.551667
22.654902 24.428444 4.710943
22.671833 24.445827 4.861462
22.685843 24.460211 5.013978
22.696909 24.471575 5.168448
22.695496 24.470121 5.333169
22.705376 24.480265 5.487188
22.733824 24.509476 5.624553
22.735405 24.511099 5.784429
22.748404 24.524445 5.933874
22.763266 24.539703 6.081160
22.782429 24.559381 6.224333
22.784117 24.561113 6.381318
22.794933 24.572218 6.530155
22.800335 24.577765 6.682734
22.800285 24.577715 6.838959
22.806995 24.584602 6.989128
22.827873 24.606039 7.127656
22.848274 24.626986 7.266158
22.850939 24.629721 7.417762
22.865398 24.644567 7.559818
22.889263 24.669073 7.694399
22.890337 24.670174 7.845465
22.900806 24.680923 7.989019
22.915752 24.696270 8.128839
22.932713 24.713682 8.266797
22.926662 24.707472 8.420602
22.945135 24.726437 8.556561
22.953089 24.734604 8.699434
22.975657 24.757776 8.831835
22.970009 24.751976 8.983005
22.981522 24.763796 9.122038
22.984947 24.767315 9.265983
22.998024 24.780741 9.403104
22.997910 24.780621 9.548345
22.994724 24.777351 9.694970
23.037012 24.820772 9.812367
23.035427 24.819143 9.957131
22.367554 24.559582 1.065445
22.382135 24.574823 1.237107
22.404842 24.598560 1.398881
22.402628 24.596245 1.587004
22.421806 24.616291 1.750789
22.440350 24.635675 1.914430
22.440416 24.635744 2.096827
22.466597 24.663113 2.250651
22.476496 24.673458 2.420770
22.485723 24.683105 2.590638
22.498806 24.696779 2.755636
22.508982 24.707417 2.922724
22.529875 24.729258 3.078183
22.543350 24.743343 3.240333
22.547062 24.747223 3.411289
22.556982 24.757591 3.575231
22.584675 24.786541 3.721180
22.588778 24.790829 3.889188
22.589916 24.792017 4.059088
22.606628 24.809486 4.213425
22.620445 24.823931 4.369791
22.638344 24.842642 4.521699
22.651011 24.855881 4.677762
22.663095 24.868513 4.833653
22.676956 24.883003 4.987263
22.680819 24.887039 5.149071
22.693523 24.900320 5.302315
22.696186 24.903103 5.463629
22.722008 24.930096 5.604229
22.737812 24.946615 5.752952
22.738745 24.947590 5.913640
22.748653 24.957949 6.066038
22.760408 24.970236 6.216274
22.771620 24.981955 6.366354
22.777464 24.988064 6.520180
22.802097 25.013815 6.658287
22.794739 25.006121 6.821392
22.806206 25.018106 6.968860
22.826893 25.039732 7.108621
22.837334 25.050646 7.255859
22.847252 25.061012 7.402946
22.839474 25.052881 7.562790
22.870440 25.085251 7.692991
22.873877 25.088844 7.843259
22.889122 25.104782 7.984307
22.901407 25.117624 8.127062
22.915680 25.132542 8.267938
22.934441 25.152153 8.405227
22.932810 25.150448 8.556376
22.935627 25.153393 8.703806
22.962936 25.181940 8.833977
22.967270 25.186470 8.979433
22.986162 25.206219 9.114659
22.984474 25.204454 9.263127
22.987301 25.207407 9.408049
22.987095 25.207191 9.554389
22.999033 25.219671 9.692442
23.010504 25.231663 9.830410
23.039303 25.261765 9.957253
22.338730 25.002800 1.012400
22.353159 25.018181 1.185110
22.369099 25.035172 1.355199
22.386578 25.053802 1.522701
22.394608 25.062363 1.699545
22.410772 25.079594 1.866647
22.424082 25.093781 2.035917
22.430075 25.100168 2.211980
22.450977 25.122450 2.371490
22.460106 25.132179 2.542424
22.468573 25.141205 2.713102
22.480881 25.154325 2.878959
22.490299 25.164364 3.046870
22.503603 25.178545 3.210038
22.518559 25.194489 3.370782
22.535194 25.212221 3.529134
22.551243 25.229330 3.687347
22.562130 25.240934 3.849794
22.565519 25.244545 4.018563
22.577473 25.257288 4.178379
22.588831 25.269396 4.338007
22.592655 25.273470 4.503837
22.609779 25.291725 4.656671
22.626350 25.309389 4.809393
22.649376 25.333935 4.955731
22.643806 25.327995 5.126915
22.663391 25.348871 5.275059
22.654217 25.339092 5.447655
22.696272 25.383923 5.575191
22.688267 25.375387 5.745226
22.710428 25.399012 5.888873
22.720213 25.409441 6.042407
22.734211 25.424362 6.191822
22.730961 25.420898 6.354781
22.743862 25.434650 6.503837
22.746637 25.437609 6.660447
22.760872 25.452782 6.807264
22.774595 25.467409 6.953970
22.790222 25.484068 7.098687
22.788393 25.482119 7.256340
22.788414 25.482141 7.411841
22.826813 25.523073 7.537789
22.830677 25.527191 7.689346
22.860889 25.559397 7.820894
22.863737 25.562433 7.972166
22.866049 25.564896 8.123205
22.882586 25.582523 8.263498
22.888790 25.589136 8.410681
22.896954 25.597837 8.555961
22.914518 25.616562 8.694270
22.911779 25.613642 8.846055
22.928389 25.631348 8.984171
22.932085 25.635288 9.130532
22.940269 25.644011 9.273412
22.950468 25.654882 9.414526
22.970215 25.675932 9.549092
22.971954 25.677786 9.694822
22.993313 25.700552 9.827722
23.001646 25.709436 9.968464
22.335608 25.457457 1.134920
22.347044 25.469875 1.310884
22.357798 25.481554 1.486597
22.376616 25.501989 1.652601
22.379459 25.505075 1.834902
22.385983 25.512159 2.012181
22.413885 25.542459 2.165951
22.425743 25.555336 2.335846
22.421413 25.550634 2.521563
22.438614 25.569313 2.684070
22.446281 25.577641 2.855479
22.462254 25.594984 3.017625
22.479879 25.614124 3.177376
22.487902 25.622837 3.345874
22.495291 25.630859 3.514116
22.511112 25.648041 3.673334
22.514990 25.652250 3.843285
22.543295 25.682989 3.989158
22.552814 25.693327 4.152227
22.566317 25.707989 4.310808
22.579241 25.722025 4.469227
22.600811 25.745447 4.619062
22.603369 25.748224 4.785547
22.626162 25.772976 4.933075
22.639151 25.787083 5.088800
22.637608 25.785406 5.256628
22.640104 25.788116 5.420057
22.658390 25.807974 5.569108
22.666769 25.817072 5.726071
22.688700 25.840889 5.870934
22.703064 25.856485 6.021671
22.709808 25.863810 6.178142
22.708878 25.862799 6.340210
22.719234 25.874044 6.492355
22.745733 25.902822 6.630986
22.752676 25.910360 6.784796
22.744715 25.901714 6.949658
22.774525 25.934086 7.084361
22.782265 25.942492 7.235765
22.787067 25.947706 7.388816
22.803404 25.965448 7.532578
22.807159 25.969524 7.685264
22.820078 25.983553 7.830592
22.832506 25.997049 7.975814
22.832260 25.996782 8.129683
22.853445 26.019787 8.267661
22.869286 26.036989 8.409089
22.879755 26.048359 8.553868
22.884825 26.053864 8.701900
22.894310 26.064165 8.846396
22.910709 26.081972 8.985791
22.924177 26.096598 9.126790
22.914902 26.086523 9.282336
22.929878 26.102789 9.421431
22.936947 26.110464 9.565254
22.946024 26.120321 9.707353
22.979576 26.156757 9.833724
22.970264 26.146645 9.986554
22.309229 25.889145 1.089874
22.339939 25.923111 1.245460
22.339796 25.922953 1.434141
22.349768 25.933979 1.610675
22.363415 25.949076 1.782277
22.376421 25.963459 1.953667
22.404121 25.994097 2.108692
22.409292 25.999817 2.286624
22.422598 26.014532 2.455133
22.446341 26.040794 2.612114
22.442904 26.036991 2.796032
22.454327 26.049623 2.963887
22.467356 26.064035 3.129304
22.488731 26.087677 3.285705
22.509550 26.110703 3.442024
22.502811 26.103249 3.624381
22.508909 26.109993 3.793322
22.518906 26.121050 3.957698
22.528299 26.131439 4.121858
22.543924 26.148720 4.279442
22.547581 26.152763 4.447404
22.573494 26.181425 4.594194
22.582853 26.191776 4.755500
22.587030 26.196396 4.920715
22.604441 26.215652 5.073394
22.619011 26.231768 5.228001
22.621447 26.234463 5.392545
22.634905 26.249346 5.546810
22.659473 26.276520 5.691015
22.669546 26.287661 5.847038
22.674391 26.293018 6.006786
22.690401 26.310726 6.156600
22.696487 26.317457 6.314009
22.713806 26.336613 6.461661
22.721174 26.344763 6.616806
22.739843 26.365412 6.762371
22.736658 26.361887 6.924631
22.747168 26.373510 7.075489
22.759544 26.387199 7.224368
22.752293 26.379177 7.387636
22.777996 26.407606 7.525348
22.786449 26.416958 7.675598
22.801611 26.433727 7.820379
22.823526 26.457966 7.959832
22.825661 26.460325 8.113187
22.853903 26.491562 8.247380
22.852606 26.490126 8.402132
22.870226 26.509615 8.543094
22.877642 26.517818 8.690719
22.874798 26.514671 8.844811
22.878757 26.519051 8.993692
22.894472 26.536432 9.134247
22.907278 26.550594 9.276368
22.919619 26.564243 9.418412
22.921637 26.566475 9.566684
22.930565 26.576349 9.710058
22.951397 26.599392 9.845587
22.956932 26.605513 9.990328
22.280096 26.363106 1.026735
22.289148 26.373320 1.207253
22.308250 26.394869 1.375744
22.324583 26.413294 1.546424
22.342447 26.433447 1.714607
22.340191 26.430901 1.903396
22.358944 26.452057 2.068841
22.372734 26.467613 2.238710
22.418711 26.519484 2.374418
22.453295 26.558498 2.521603
22.474184 26.582066 2.682281
22.481264 26.590054 2.856188
22.441223 26.544880 3.076148
22.495714 26.606354 3.200977
22.503101 26.614687 3.371881
22.534412 26.650011 3.518739
22.518229 26.631754 3.710754
22.481098 26.589861 3.921399
22.501633 26.613028 4.076136
22.505835 26.617767 4.245522
22.516205 26.629467 4.408359
22.537342 26.653315 4.560624
22.560236 26.679142 4.710774
22.555256 26.673521 4.885417
22.563347 26.682650 5.047492
22.573156 26.693714 5.207336
22.596195 26.719707 5.354995
22.602612 26.726944 5.516522
22.603842 26.728333 5.681750
22.618370 26.744722 5.834965
22.641663 26.771000 5.980310
22.643538 26.773115 6.142955
22.658831 26.790367 6.293876
22.664261 26.796494 6.452265
22.680859 26.815218 6.601045
22.685217 26.820135 6.759051
22.686674 26.821777 6.918667
22.715883 26.854731 7.056055
22.725746 26.865858 7.208053
22.744577 26.887102 7.352702
22.762938 26.907814 7.497317
22.764166 26.909201 7.654268
22.776779 26.923429 7.802200
22.779345 26.926323 7.956970
22.798147 26.947535 8.099460
22.804489 26.954689 8.250455
22.810328 26.961275 8.401269
22.815662 26.967293 8.551896
22.842226 26.997261 8.687423
22.853857 27.010384 8.832889
22.862589 27.020233 8.979881
22.851406 27.007618 9.139612
22.866442 27.024580 9.281422
22.878586 27.038280 9.424762
22.890268 27.051460 9.568020
22.906387 27.069643 9.708103
22.907354 27.070734 9.857335
22.279701 26.836590 1.139738
22.292278 26.851038 1.316490
22.308477 26.869648 1.488368
22.315475 26.877686 1.669296
22.330400 26.894835 1.840753
22.342546 26.908789 2.014300
22.356222 26.924498 2.185361
22.373623 26.944489 2.351721
22.386072 26.958792 2.522409
22.395723 26.969879 2.695108
22.395985 26.970179 2.876389
22.421930 26.999987 3.031004
22.440741 27.021597 3.192131
22.432480 27.012106 3.379099
22.447882 27.029799 3.541971
22.467154 27.051941 3.700426
22.468060 27.052980 3.875736
22.477262 27.063553 4.042291
22.488108 27.076014 4.206537
22.505116 27.095551 4.364363
22.510323 27.101534 4.532371
22.530737 27.124985 4.685803
22.530260 27.124439 4.857438
22.547321 27.144039 5.012623
22.563856 27.163034 5.167710
22.566179 27.165705 5.334597
22.590776 27.193962 5.481508
22.598858 27.203245 5.642099
22.604082 27.209248 5.804425
22.629469 27.238413 5.949203
22.622074 27.229918 6.120712
22.641827 27.252611 6.269116
22.647184 27.258764 6.428737
22.654314 27.266954 6.586271
22.670229 27.285240 6.736219
22.690321 27.308321 6.882426
22.695898 27.314730 7.039497
22.691561 27.309744 7.203553
22.724262 27.347315 7.338727
22.725931 27.349232 7.497040
22.736504 27.361378 7.648087
22.760773 27.389259 7.788578
22.758526 27.386679 7.948048
22.779491 27.410765 8.090167
22.783350 27.415195 8.244122
22.796234 27.429998 8.391170
22.799080 27.433268 8.544759
22.815790 27.452465 8.688275
22.827242 27.465622 8.835012
22.840631 27.481005 8.980036
22.841513 27.482016 9.132957
22.846716 27.487993 9.282487
22.849014 27.490631 9.433403
22.872620 27.517752 9.570196
22.876394 27.522089 9.719301
22.884550 27.531456 9.865193
22.242357 27.324888 1.075146
22.246368 27.329590 1.262414
22.260286 27.345901 1.437800
22.271441 27.358974 1.615272
22.296886 27.388800 1.776548
22.293957 27.385366 1.967218
22.313921 27.408766 2.132711
22.326847 27.423918 2.304800
22.343481 27.443413 2.472241
22.355192 27.457140 2.643945
22.374985 27.480337 2.806665
22.383326 27.490112 2.980170
22.393230 27.501724 3.151257
22.406908 27.517754 3.317821
22.422201 27.535679 3.482076
22.425917 27.540033 3.656773
22.424587 27.538473 3.835376
22.431465 27.546535 4.005256
22.439968 27.556501 4.172806
22.452337 27.570997 4.336011
22.486458 27.610992 4.478604
22.479860 27.603258 4.657844
22.486073 27.610538 4.824574
22.518690 27.648769 4.967072
22.517052 27.646849 5.139436
22.519316 27.649502 5.307520
22.550447 27.685993 5.449919
22.547071 27.682035 5.621490
22.554472 27.690708 5.783085
22.565887 27.704088 5.940654
22.585924 27.727571 6.090500
22.596308 27.739742 6.247815
22.608463 27.753990 6.403108
22.627014 27.775734 6.552726
22.635853 27.786093 6.709618
22.651108 27.803972 6.860891
22.651962 27.804974 7.022873
22.666210 27.821672 7.173876
22.668324 27.824150 7.333627
22.688572 27.847883 7.479105
22.691992 27.851891 7.636733
22.701918 27.863523 7.788968
22.720743 27.885590 7.934243
22.732054 27.898848 8.084569
22.740524 27.908775 8.236451
22.755590 27.926432 8.383212
22.751253 27.921349 8.543048
22.770105 27.943445 8.686306
22.774252 27.948305 8.839222
22.796949 27.974911 8.979192
22.800142 27.978651 9.131836
22.793280 27.970606 9.290523
22.797859 27.975973 9.441145
22.816347 27.997643 9.582412
22.834408 28.018812 9.723686
22.852036 28.039474 9.864968
22.217695 27.796026 1.012508
22.227968 27.808290 1.194014
22.239685 27.822281 1.372969
22.242319 27.825424 1.560803
22.267548 27.855547 1.723365
22.283731 27.874870 1.894884
22.290798 27.883307 2.075180
22.316435 27.913918 2.235198
22.339399 27.941338 2.397388
22.333887 27.934755 2.588018
22.340597 27.942766 2.765132
22.342354 27.944864 2.946294
22.378126 27.987576 3.092736
22.376505 27.985638 3.275578
22.393827 28.006321 3.438966
22.404045 28.018520 3.608545
22.404915 28.019558 3.786266
22.422722 28.040819 3.947055
22.424576 28.043034 4.122155
22.443476 28.065599 4.280580
22.455214 28.079613 4.445009
22.455297 28.079712 4.619334
22.472565 28.100330 4.777332
22.480394 28.109676 4.943168
22.494362 28.126356 5.102878
22.505562 28.139727 5.264405
22.522957 28.160496 5.419950
22.535347 28.175289 5.579257
22.529148 28.167887 5.753681
22.556280 28.200283 5.899319
22.567085 28.213184 6.058158
22.575094 28.222746 6.218698
22.573456 28.220789 6.386430
22.587231 28.237238 6.541021
22.607370 28.261282 6.690060
22.617867 28.273815 6.846277
22.625555 28.282995 7.004129
22.632730 28.291561 7.161795
22.646313 28.307779 7.314018
22.666353 28.331707 7.460930
22.674345 28.341248 7.616442
22.677185 28.344639 7.775199
22.693476 28.364090 7.923580
22.704638 28.377415 8.075262
22.705965 28.379002 8.233459
22.727854 28.405136 8.376633
22.737579 28.416748 8.527969
22.744476 28.424982 8.680790
22.753239 28.435444 8.831856
22.763887 28.448158 8.981207
22.764610 28.449020 9.136703
22.783783 28.471912 9.279592
22.778791 28.465952 9.437797
22.794685 28.484928 9.582067
22.807755 28.500532 9.727814
22.822765 28.518456 9.872019
22.206823 28.295547 1.128505
22.224716 28.317310 1.301917
22.227350 28.320517 1.491032
22.250298 28.348431 1.657285
22.251625 28.350042 1.845820
22.271278 28.373951 2.013995
22.286127 28.392012 2.186469
22.291880 28.399010 2.367535
22.339607 28.457067 2.504750
22.335657 28.452261 2.694159
22.324589 28.438797 2.889589
22.360073 28.481960 3.037559
22.345545 28.464289 3.234385
22.375660 28.500921 3.386467
22.366301 28.489536 3.576210
22.377977 28.503740 3.744725
22.389080 28.517244 3.913054
22.399616 28.530062 4.081185
22.416151 28.550175 4.243030
22.432156 28.569643 4.404759
22.452026 28.593815 4.562375
22.451536 28.593218 4.737783
22.461500 28.605337 4.903007
22.481993 28.630264 5.058273
22.484215 28.632967 5.229003
22.499220 28.651220 5.387902
22.504782 28.657986 5.554317
22.507551 28.661352 5.722386
22.529940 28.688587 5.873288
22.545116 28.707048 6.029771
22.541761 28.702967 6.200927
22.560413 28.725657 6.353425
22.567268 28.733995 6.514954
22.587208 28.758249 6.665483
22.597586 28.770874 6.823127
22.598345 28.771797 6.987694
22.619112 28.797058 7.136209
22.614250 28.791142 7.303832
22.627172 28.806862 7.457335
22.651102 28.835970 7.602210
22.649271 28.833742 7.765720
22.669971 28.858925 7.912196
22.690228 28.883564 8.058686
22.693832 28.887949 8.216679
22.701571 28.897362 8.371204
22.720449 28.920324 8.517524
22.717918 28.917246 8.678191
22.728874 28.930573 8.829097
22.730007 28.931950 8.986150
22.747040 28.952669 9.132147
22.751900 28.958582 9.285778
22.770388 28.981071 9.430149
22.769602 28.980114 9.586514
22.775398 28.987164 9.738185
22.785458 28.999401 9.886767
22.162115 28.802931 1.061861
22.171583 28.814680 1.245687
22.184551 28.830774 1.424747
22.205225 28.856432 1.594649
22.208632 28.860659 1.782217
22.226027 28.882248 1.953995
22.240744 28.900513 2.127822
22.240135 28.899755 2.316718
22.255743 28.919127 2.487921
22.277128 28.945667 2.652520
22.308586 28.984711 2.806378
22.309765 28.986172 2.989970
22.312435 28.989487 3.171108
22.325180 29.005302 3.341476
22.328772 29.009760 3.519958
22.323147 29.002777 3.706372
22.327648 29.008364 3.882135
22.370481 29.061523 4.021084
22.367382 29.057678 4.202584
22.381046 29.074635 4.367705
22.396349 29.093626 4.530694
22.408939 29.109253 4.695528
22.423183 29.126928 4.858252
22.421534 29.124882 5.034412
22.432489 29.138479 5.198685
22.449530 29.159626 5.357064
22.450594 29.160946 5.528606
22.457727 29.169800 5.694217
22.482096 29.200043 5.844719
22.485966 29.204844 6.011868
22.504910 29.228355 6.165945
22.518902 29.245720 6.323615
22.530159 29.259691 6.482976
22.534172 29.264673 6.647546
22.544401 29.277367 6.806575
22.558647 29.295046 6.961945
22.570145 29.309315 7.118964
22.576618 29.317350 7.279298
22.593937 29.338842 7.430912
22.601692 29.348469 7.589245
22.615788 29.365961 7.742389
22.617996 29.368700 7.903743
22.631130 29.385002 8.056646
22.641504 29.397877 8.211091
22.649103 29.407307 8.367026
22.676939 29.441853 8.508455
22.676693 29.441547 8.668951
22.685181 29.452082 8.822938
22.683939 29.450539 8.982974
22.696102 29.465635 9.133563
22.705490 29.477285 9.285586
22.716743 29.491251 9.436000
22.736866 29.516226 9.580402
22.742561 29.523293 9.733636
22.745449 29.526878 9.888162
22.151930 29.325382 1.169412
22.168941 29.346893 1.345417
22.181236 29.362442 1.525707
22.192917 29.377213 1.705778
22.191538 29.375467 1.898775
22.210283 29.399174 2.069591
22.218031 29.408970 2.251103
22.237719 29.433865 2.419453
22.261053 29.463373 2.583437
22.264927 29.468271 2.766445
22.282940 29.491051 2.934412
22.306757 29.521168 3.095996
22.298243 29.510401 3.288668
22.316700 29.533739 3.454089
22.304771 29.518654 3.648036
22.315678 29.532446 3.819135
22.328165 29.548237 3.988026
22.346548 29.571482 4.150749
22.353645 29.580458 4.323308
22.355852 29.583250 4.499564
22.387783 29.623627 4.648162
22.393230 29.630514 4.820139
22.391584 29.628433 4.997633
22.402433 29.642151 5.163328
22.417118 29.660721 5.325067
22.422535 29.667570 5.494199
22.440573 29.690380 5.651923
22.466930 29.723711 5.802200
22.472988 29.731371 5.969013
22.476297 29.735554 6.137421
22.483496 29.744658 6.301969
22.499054 29.764332 6.459179
22.511904 29.780581 6.618079
22.526489 29.799026 6.775112
22.533892 29.808384 6.937269
22.543022 29.819929 7.097518
22.560631 29.842199 7.250787
22.575531 29.861040 7.405711
22.576441 29.862190 7.570607
22.585859 29.874100 7.728605
22.608366 29.902561 7.876609
22.605505 29.898941 8.042548
22.624830 29.923380 8.192074
22.639164 29.941505 8.344795
22.641642 29.944639 8.505347
22.655043 29.961584 8.657863
22.663410 29.972166 8.813403
22.666721 29.976355 8.971868
22.671846 29.982832 9.128613
22.683393 29.997435 9.280691
22.699099 30.017294 9.429723
22.705133 30.024925 9.584596
22.715328 30.037817 9.736416
22.725069 30.050137 9.888144
22.125731 29.834740 1.097090
22.144665 29.859135 1.272308
22.138479 29.851164 1.473885
22.176706 29.900415 1.626741
22.173336 29.896072 1.823309
22.177528 29.901472 2.010789
22.210041 29.943363 2.167861
22.217186 29.952566 2.350624
22.225794 29.963655 2.530992
22.237972 29.979347 2.706898
22.260031 30.007767 2.872160
22.271086 30.022009 3.047743
22.271049 30.021963 3.233416
22.316765 30.080862 3.373744
22.269098 30.019447 3.603673
22.296852 30.055204 3.760040
22.296513 30.054768 3.942448
22.312603 30.075497 4.108626
22.332438 30.101051 4.270753
22.338928 30.109413 4.444545
22.366308 30.144690 4.598705
22.384628 30.168295 4.760613
22.378738 30.160704 4.943441
22.374397 30.155109 5.123964
22.399775 30.187805 5.277819
22.411673 30.203135 5.442883
22.414352 30.206587 5.615186
22.427380 30.223372 5.778056
22.437717 30.236689 5.942616
22.447542 30.249348 6.107013
22.459047 30.264170 6.269463
22.467857 30.275520 6.433540
22.480562 30.291889 6.593938
22.499409 30.316170 6.749008
22.511147 30.331293 6.909221
22.524620 30.348652 7.067602
22.524275 30.348207 7.236028
22.536764 30.364298 7.394121
22.544312 30.374020 7.555428
22.562548 30.397516 7.708352
22.578094 30.417547 7.862887
22.581959 30.422523 8.025425
22.596573 30.441353 8.179775
22.597206 30.442167 8.343540
22.617655 30.468515 8.492990
22.626366 30.479738 8.650201
22.625544 30.478678 8.813400
22.635571 30.491596 8.968763
22.647411 30.506849 9.122521
22.645130 30.503910 9.285090
22.669737 30.535616 9.429795
22.677938 30.546181 9.584755
22.089178 30.390652 1.004251
22.091858 30.394175 1.198729
22.101973 30.407475 1.384072
22.111471 30.419962 1.569164
22.138681 30.455742 1.734527
22.146999 30.466681 1.919237
22.162903 30.487589 2.095140
22.182343 30.513151 2.266653
22.182707 30.513630 2.457010
22.198952 30.534988 2.630276
22.210503 30.550179 2.807554
22.204874 30.542776 3.001112
22.233965 30.581030 3.159458
22.254242 30.607693 3.325979
22.232170 30.578667 3.532733
22.249212 30.601074 3.700818
22.263632 30.620035 3.870780
22.271194 30.629980 4.046510
22.284533 30.647518 4.216141
22.303692 30.672710 4.379807
22.305372 30.674919 4.558800
22.329878 30.707144 4.716490
22.321926 30.696686 4.902596
22.328323 30.705095 5.075114
22.334173 30.712788 5.247400
22.354515 30.739536 5.406520
22.370077 30.759998 5.569279
22.370047 30.759958 5.744654
22.395403 30.793301 5.898115
22.400812 30.800411 6.067695
22.407867 30.809689 6.235275
22.425285 30.832592 6.393888
22.431332 30.840540 6.561140
22.458714 30.876547 6.710965
22.459394 30.877441 6.881363
22.466129 30.886295 7.046410
22.472363 30.894491 7.211264
22.491310 30.919405 7.365975
22.489941 30.917606 7.535461
22.501320 30.932568 7.694889
22.521091 30.958565 7.847762
22.529324 30.969389 8.008621
22.539299 30.982506 8.167753
22.551035 30.997938 8.325198
22.560076 31.009825 8.484097
22.577597 31.032862 8.636744
22.585716 31.043539 8.795445
22.586637 31.044748 8.958502
22.063097 30.917620 1.125365
22.077168 30.936468 1.307812
22.094677 30.959925 1.485736
22.111618 30.982620 1.663523
22.121925 30.996426 1.847569
22.135693 31.014868 2.027140
22.148888 31.032545 2.206526
22.161509 31.049454 2.385725
22.171516 31.062859 2.566805
22.180939 31.075480 2.747661
22.183615 31.079063 2.934417
22.191866 31.090118 3.114755
22.203674 31.105938 3.290822
22.210787 31.115463 3.470699
22.225632 31.135349 3.642387
22.229534 31.140577 3.823786
22.243296 31.159012 3.995119
22.256529 31.176739 4.166307
22.279720 31.207808 4.327725
22.296127 31.229788 4.494870
22.303598 31.239796 4.669491
22.291512 31.223602 4.860787
22.308439 31.246277 5.025505
22.322752 31.265450 5.191988
22.334433 31.281099 5.360190
22.347738 31.298923 5.526425
22.358406 31.313213 5.694339
22.364283 31.321085 5.865664
22.367487 31.325377 6.038534
22.389511 31.354879 6.195364
22.385225 31.349138 6.373064
22.406296 31.377365 6.529735
22.413931 31.387592 6.696654
22.436245 31.417486 6.851557
22.434217 31.414768 7.024916
22.442541 31.425919 7.189663
22.454737 31.442255 7.350961
22.475204 31.469675 7.505648
22.484283 31.481836 7.668409
22.488495 31.487478 7.834218
22.501005 31.504238 7.993498
22.502041 31.505625 8.160507
22.033255 31.480705 1.031215
22.051254 31.505299 1.210967
22.056734 31.512783 1.403486
22.067581 31.527603 1.589284
22.095863 31.566240 1.755770
22.089499 31.557545 1.958075
22.094547 31.564440 2.147356
22.115135 31.592569 2.319727
22.129128 31.611685 2.498206
22.126320 31.607849 2.692882
22.141197 31.628174 2.868869
22.159609 31.653326 3.040679
22.173412 31.672186 3.216394
22.188725 31.693104 3.389971
22.191172 31.696447 3.575235
22.205399 31.715883 3.748451
22.214962 31.728951 3.925408
22.230198 31.749763 4.096384
22.236610 31.758526 4.274878
22.248714 31.775061 4.447446
22.264467 31.796583 4.616097
22.260904 31.791714 4.801414
22.260942 31.791763 4.982651
22.283516 31.822603 5.143411
22.292999 31.835562 5.315078
22.299856 31.844927 5.488367
22.318872 31.870909 5.650726
22.314114 31.864405 5.832520
22.338512 31.897739 5.989376
22.349705 31.913031 6.156714
22.351871 31.915991 6.330805
22.366333 31.935745 6.494385
22.378180 31.951931 6.659570
22.385250 31.961592 6.827987
22.391825 31.970573 6.996216
22.412979 31.999474 7.152751