# .PCD v0.7 - Point Cloud Data file format
VERSION 0.7
FIELDS x y z intensity
SIZE 4 4 4 4
TYPE F F F F
COUNT 1 1 1 1
WIDTH 1291
HEIGHT 1
VIEWPOINT 0 0 0 1 0 0 0
POINTS 1291
DATA ascii
15.926044 30.71422 -3.1880193 81811
16.053885 30.947184 -3.2011986 81812
16.186396 31.188658 -3.2204168 81813
16.325075 31.441374 -3.2481596 81814
16.465595 31.697445 -3.2764628 81815
16.600628 31.943516 -3.292347 81816
16.75515 32.225101 -3.3397141 81817
16.895355 32.480598 -3.3591547 81818
17.044819 32.752968 -3.3918097 81819
17.194696 33.026089 -3.4222348 81820
17.344982 33.299953 -3.4504182 81821
17.500168 33.582748 -3.4838734 81822
17.654274 33.863579 -3.5125041 81823
17.820869 34.167164 -3.5586488 81824
17.959156 34.419163 -3.5554178 81825
17.935011 34.375164 -3.2878854 81826
1.8436824 5.153142 -0.30671808 81952
1.889774 5.2389579 -0.30197865 81953
1.9353284 5.3237743 -0.33680114 81954
1.9814482 5.4096437 -0.33121312 81955
2.0274014 5.4952021 -0.34120044 81956
2.0732861 5.5806332 -0.36676002 81957
2.1193988 5.6664891 -0.36389905 81958
2.1654482 5.7522268 -0.38061407 81959
2.2115645 5.8380895 -0.39690566 81960
2.2577133 5.9240122 -0.39276859 81961
2.303905 6.0100155 -0.40420714 81962
2.3501914 6.0961943 -0.42321903 81963
2.3964314 6.1822867 -0.42580453 81964
2.4428439 6.2687011 -0.44395873 81965
2.4890947 6.3548136 -0.44168967 81966
2.5356216 6.4414406 -0.45898432 81967
2.5822253 6.5282106 -0.47584775 81968
2.6289043 6.6151204 -0.49227908 81969
2.6753337 6.7015662 -0.49228987 81970
2.7215927 6.787694 -0.48388174 81971
2.7679231 6.8739552 -0.47904173 81972
2.8150897 6.9617729 -0.50572377 81973
2.8623762 7.0498142 -0.53196436 81974
2.9088047 7.1362576 -0.5258261 81975
2.9550893 7.2224336 -0.51526874 81976
3.0035634 7.312686 -0.56811357 81977
3.0502124 7.3995404 -0.56466019 81978
3.0977929 7.4881287 -0.58469677 81979
3.1446548 7.5753794 -0.58435589 81980
3.1922185 7.6639371 -0.59951466 81981
3.2396829 7.7523093 -0.61024475 81982
3.2866457 7.8397474 -0.60858536 81983
3.3340135 7.9279399 -0.6144464 81984
3.3814254 8.0162144 -0.61986548 81985
3.4299452 8.1065521 -0.64470929 81986
3.4772637 8.1946535 -0.64525521 81987
3.5239203 8.2815208 -0.63344669 81988
3.5724504 8.3718777 -0.65295362 81989
3.6223145 8.4647179 -0.69182616 81990
3.6700807 8.5536528 -0.69453442 81991
3.7657251 8.7317295 -0.69859803 81993
3.9115217 9.0031834 -0.72896892 81996
3.9613743 9.0960026 -0.75263661 81997
4.0098023 9.1861687 -0.75609171 81998
4.0576396 9.2752352 -0.75119883 81999
4.2070689 9.5534534 -0.8006866 82002
4.2557974 9.6441793 -0.80179709 82003
4.4553471 10.015714 -0.84466028 82007
4.5051503 10.10844 -0.8512221 82008
4.5554228 10.202042 -0.86120933 82009
4.6061883 10.29656 -0.87460917 82010
4.6574697 10.392039 -0.89140612 82011
4.7084417 10.486942 -0.90379393 82012
4.759079 10.581223 -0.91178268 82013
4.8097963 10.675652 -0.91927212 82014
4.8610415 10.771063 -0.93014669 82015
4.9114676 10.86495 -0.93274683 82016
4.9624195 10.959815 -0.93873227 82017
5.0139194 11.055701 -0.94808412 82018
5.0664711 11.153545 -0.96465933 82019
5.1191444 11.251616 -0.98070043 82020
5.1709452 11.348063 -0.98848879 82021
5.2223287 11.443731 -0.99189872 82022
5.2763443 11.544301 -1.0140519 82023
5.3284273 11.641273 -1.020261 82024
5.38165 11.740367 -1.0336305 82025
5.4382033 11.845662 -1.0694702 82026
5.4911575 11.944255 -1.0778865 82027
5.5442071 12.043027 -1.0857601 82028
5.5956721 12.138847 -1.0816352 82029
5.6522923 12.244267 -1.1113393 82030
5.7067976 12.345748 -1.125194 82031
5.7590909 12.443112 -1.1232612 82032
5.813808 12.544987 -1.1360035 82033
5.8674464 12.644855 -1.1405849 82034
5.9236002 12.749406 -1.1597728 82035
5.9799027 12.854234 -1.1783621 82036
6.0357294 12.958176 -1.1925757 82037
6.0872736 13.054144 -1.1797969 82038
6.1420279 13.15609 -1.1853372 82039
6.2020464 13.267836 -1.2203867 82040
6.2570548 13.370255 -1.2247362 82041
6.3134799 13.475309 -1.23601 82042
6.3680201 13.576857 -1.2354547 82043
6.430759 13.693667 -1.2791647 82044
6.4841723 13.793117 -1.2699451 82045
6.5355515 13.888778 -1.2490158 82046
6.6002235 14.009189 -1.298191 82047
6.6588125 14.118274 -1.3132243 82048
6.7175469 14.22763 -1.327621 82049
6.7749786 14.334559 -1.3339826 82050
6.8354445 14.447139 -1.3544862 82051
6.8909144 14.550417 -1.3485352 82052
6.9494309 14.659367 -1.3567083 82053
7.0140967 14.779765 -1.3936025 82054
7.0683513 14.88078 -1.3784723 82055
7.1310878 14.997587 -1.4029927 82056
7.1878095 15.103195 -1.3976128 82057
7.2485204 15.216231 -1.4098395 82058
7.3125401 15.335427 -1.4359236 82059
7.3759632 15.453512 -1.4576426 82060
7.4363503 15.565946 -1.464162 82061
7.495235 15.67558 -1.4627875 82062
7.5616007 15.799145 -1.4932094 82063
7.6207376 15.909249 -1.4904836 82064
7.6824713 16.024189 -1.497878 82065
7.7468677 16.144087 -1.5153227 82066
7.8131413 16.267481 -1.5391748 82067
7.8744707 16.381668 -1.540854 82068
7.9428353 16.508953 -1.5703095 82069
8.0027037 16.62042 -1.5634539 82070
8.0696898 16.74514 -1.5842743 82071
8.1359873 16.868576 -1.6007737 82072
8.2042513 16.995674 -1.6235442 82073
8.2700167 17.11812 -1.6349547 82074
8.3341236 17.23748 -1.6385814 82075
8.4029427 17.365612 -1.6589764 82076
8.4710379 17.492395 -1.6750551 82077
8.5365257 17.614326 -1.6798811 82078
8.6021509 17.736511 -1.683944 82079
8.6745291 17.871269 -1.711507 82080
8.7404766 17.994055 -1.7139864 82081
8.8161497 18.134949 -1.7501779 82082
8.8795338 18.25296 -1.7407135 82083
8.9478693 18.380194 -1.7476813 82084
9.0281286 18.529625 -1.7948952 82085
9.097847 18.65943 -1.8035449 82086
9.1677284 18.789541 -1.8113575 82087
9.2397776 18.923687 -1.8251206 82088
9.3130236 19.060061 -1.8413922 82089
9.3935795 19.210045 -1.8803897 82090
9.4601135 19.333923 -1.8712295 82091
9.5360136 19.475239 -1.8915033 82092
9.6079874 19.609245 -1.8974425 82093
9.6842985 19.751328 -1.9158552 82094
9.765027 19.901632 -1.9466245 82095
9.8428526 20.046534 -1.9664036 82096
9.9177113 20.185909 -1.9752764 82097
10.000246 20.339579 -2.0063097 82098
10.074435 20.477709 -2.009968 82099
10.153125 20.624218 -2.0258269 82100
10.23421 20.775187 -2.047225 82101
10.31224 20.920469 -2.0578084 82102
10.388258 21.062004 -2.0609119 82103
10.397766 21.079706 -1.8687953 82104
11.855902 23.794561 -2.3498051 82120
11.948758 23.967449 -2.3676386 82121
12.137707 24.319246 -2.4056125 82123
13.681695 27.193945 -2.7299595 82138
13.803122 27.420027 -2.7747064 82139
13.910241 27.619469 -2.7865415 82140
14.029717 27.841917 -2.8222401 82141
14.142817 28.052492 -2.8421695 82142
14.253513 28.258596 -2.8548987 82143
14.379453 28.493078 -2.896642 82144
14.493497 28.705414 -2.911622 82145
14.617435 28.936169 -2.9442551 82146
14.741742 29.167614 -2.9750762 82147
14.865026 29.397152 -3.001343 82148
14.994212 29.637678 -3.03668 82149
15.118205 29.868536 -3.0592871 82150
15.252335 30.118267 -3.0989251 82151
15.374221 30.345205 -3.1124516 82152
15.509109 30.596346 -3.1481969 82153
15.648642 30.85614 -3.189887 82154
15.780069 31.10084 -3.2136431 82155
15.908993 31.340878 -3.2301953 82156
16.036806 31.578852 -3.2422321 82157
16.18075 31.846855 -3.2809923 82158
16.325117 32.115646 -3.3175743 82159
16.45541 32.358234 -3.3262351 82160
16.600546 32.62846 -3.3585734 82161
16.741709 32.891285 -3.3810732 82162
16.892023 33.17115 -3.4166493 82163
17.050108 33.465485 -3.4625287 82164
17.201286 33.746956 -3.4934428 82165
17.349909 34.02367 -3.5170634 82166
17.50337 34.309399 -3.5458612 82167
17.6632 34.606979 -3.5821729 82168
17.824965 34.908161 -3.6184695 82169
17.930143 35.103992 -3.5596383 82170
17.929981 35.103691 -3.3296936 82171
1.7485849 5.0847254 -0.30303186 82294
1.7934546 5.1702423 -0.32270283 82295
1.8386875 5.2564516 -0.32196501 82296
1.8838603 5.342546 -0.32480031 82297
1.9289546 5.4284911 -0.33520728 82298
1.9740516 5.514441 -0.34919426 82299
2.0192268 5.6005402 -0.35875523 82300
2.0644016 5.6866388 -0.37589487 82301
2.1096911 5.7729554 -0.37260976 82302
2.1549582 5.85923 -0.38889876 82303
2.2002702 5.94559 -0.3927629 82304
2.2455833 6.0319514 -0.39220071 82305
2.2910089 6.1185279 -0.41121262 82306
2.3364513 6.2051363 -0.42179787 82307
2.3819389 6.291831 -0.43195435 82308
2.4275181 6.3787003 -0.44568276 82309
2.4728255 6.4650517 -0.43498793 82310
2.5185385 6.5521755 -0.45185545 82311
2.5647545 6.6402583 -0.49227253 82312
2.610266 6.7269983 -0.48828679 82313
2.6558559 6.8138881 -0.48787072 82314
2.7021236 6.9020696 -0.51498663 82315
2.7477834 6.9890919 -0.51370525 82316
2.7937844 7.0767651 -0.52397203 82317
2.8404384 7.1656828 -0.55375957 82318
2.8861997 7.2528987 -0.55117553 82319
2.9315548 7.3393407 -0.53619224 82320
2.9784508 7.4287195 -0.56465262 82321
3.0250189 7.5174732 -0.58070099 82322
3.0711868 7.6054645 -0.58434814 82323
3.1173854 7.6935143 -0.58755499 82324
3.1641445 7.7826324 -0.60227102 82325
3.2109814 7.8718987 -0.61653751 82326
3.2573166 7.9602079 -0.61841846 82327
3.3038805 8.048954 -0.623833 82328
3.3506961 8.1381798 -0.63277817 82329
3.3982203 8.228756 -0.65319121 82330
3.4458499 8.3195324 -0.67314273 82331
3.4912531 8.4060659 -0.65294492 82332
3.5385282 8.4961681 -0.66405338 82333
3.5863717 8.5873528 -0.68263167 82334
3.6818314 8.769289 -0.71046609 82336
4.3593287 10.060527 -0.85639989 82350
4.405561 10.148641 -0.83555722 82351
4.4556794 10.244161 -0.85337985 82352
4.5055118 10.339136 -0.86678511 82353
4.555851 10.435078 -0.88359189 82354
4.6042194 10.527263 -0.88039446 82355
4.6547437 10.623557 -0.89619362 82356
4.7079725 10.725005 -0.9348228 82357
4.7565618 10.817612 -0.93013495 82358
4.805181 10.910274 -0.92497039 82359
4.8561082 11.007336 -0.93872029 82360
4.9071417 11.104601 -0.95194358 82361
4.9606385 11.20656 -0.98399085 82362
5.0104809 11.301555 -0.98455203 82363
5.0594039 11.394796 -0.97689509 82364
5.1123118 11.495633 -0.99959636 82365
5.1653671 11.59675 -1.0217415 82366
5.2160134 11.693277 -1.0240942 82367
5.2688017 11.793886 -1.0412983 82368
5.3211904 11.893734 -1.054113 82369
5.3742251 11.994812 -1.0702101 82370
5.4263005 12.094063 -1.0780954 82371
5.4795685 12.195585 -1.0930851 82372
5.5312867 12.294155 -1.0960622 82373
5.5842109 12.395022 -1.1061285 82374
5.6366673 12.494999 -1.1118325 82375
5.690372 12.597354 -1.1245894 82376
5.7465487 12.704421 -1.1519542 82377
5.7993264 12.805011 -1.1559685 82378
5.8546038 12.910363 -1.1745625 82379
5.9069691 13.010166 -1.1736745 82380
5.9600196 13.111275 -1.1760091 82381
6.0194168 13.224479 -1.2154474 82382
6.0701671 13.321203 -1.2015721 82383
6.1279945 13.431417 -1.2284752 82384
6.1808095 13.532077 -1.2247496 82385
6.2376275 13.640366 -1.2429239 82386
6.2965884 13.752739 -1.271677 82387
6.3517113 13.857797 -1.2773877 82388
6.4028563 13.955275 -1.260167 82389
6.4629469 14.0698 -1.2907436 82390
6.5204616 14.179418 -1.3057904 82391
6.5753102 14.283953 -1.3053861 82392
6.6344991 14.396761 -1.3265711 82393
6.6931405 14.508526 -1.3433998 82394
6.7519345 14.62058 -1.3595682 82395
6.8101487 14.73153 -1.3713995 82396
6.8692369 14.844147 -1.3862472 82397
6.9262323 14.952774 -1.389441 82398
6.984839 15.064472 -1.3993198 82399
7.0443387 15.177872 -1.4121913 82400
7.1055202 15.294477 -1.4316683 82401
7.1629906 15.40401 -1.4322715 82402
7.2221255 15.516714 -1.4394928 82403
7.2853408 15.637197 -1.4641442 82404
7.3455577 15.751964 -1.4736046 82405
7.4091344 15.873134 -1.4967953 82406
7.4688363 15.986919 -1.501253 82407
7.5335803 16.110315 -1.5265707 82408
7.5910769 16.219896 -1.5188869 82409
7.654489 16.340754 -1.5355812 82410
7.7180729 16.461939 -1.5515306 82411
7.7775769 16.575346 -1.5489444 82412
7.8431749 16.700369 -1.5705352 82413
7.9055104 16.819174 -1.5771719 82414
7.9723368 16.946539 -1.6007544 82415
8.0411243 17.077639 -1.6305752 82416
8.1012869 17.192305 -1.6243829 82417
8.1660004 17.315641 -1.6350529 82418
8.2335691 17.44442 -1.6554555 82419
8.3004274 17.571844 -1.6715453 82420
8.3683796 17.701353 -1.6903083 82421
8.4365244 17.831232 -1.7082442 82422
8.5011482 17.954397 -1.7114865 82423
8.5649691 18.076033 -1.7105091 82424
8.6383276 18.215845 -1.7432615 82425
8.7062445 18.345289 -1.7544508 82426
8.77911 18.484161 -1.7819641 82427
8.8454714 18.61064 -1.7846116 82428
8.9187565 18.750315 -1.8103478 82429
8.9893446 18.884848 -1.8249474 82430
9.0561848 19.012238 -1.8250988 82431
9.1350393 19.162527 -1.8650621 82432
9.1972332 19.281061 -1.8466133 82433
9.2735434 19.4265 -1.8745731 82434
9.3501005 19.572411 -1.9015517 82435
9.4218121 19.709085 -1.910807 82436
9.5008698 19.85976 -1.9425323 82437
9.5740061 19.999149 -1.9532566 82438
9.646287 20.136911 -1.959744 82439
9.7208252 20.278971 -1.9719448 82440
9.8018618 20.433418 -2.0029869 82441
9.875762 20.574265 -2.0099442 82442
9.9519644 20.719498 -2.0225251 82443
10.030506 20.869192 -2.0406647 82444
10.100646 21.002871 -2.0317185 82445
10.12643 21.05201 -1.8887367 82446
10.213983 21.218878 -1.9302901 82447
13.644891 27.757826 -2.7921727 82483
13.756943 27.971386 -2.816571 82484
13.871961 28.190596 -2.8449433 82485
13.987313 28.410446 -2.8716247 82486
14.102997 28.630926 -2.8966084 82487
14.21498 28.844357 -2.911588 82488
14.338027 29.078871 -2.9469771 82489
14.453329 29.298624 -2.9640689 82490
14.577083 29.534485 -2.9958487 82491
14.695738 29.76063 -3.0149035 82492
14.814711 29.987377 -3.0322051 82493
14.961483 30.267111 -3.1015821 82494
15.077031 30.487335 -3.1070578 82495
15.212242 30.745031 -3.1481605 82496
15.34091 30.990259 -3.1739347 82497
15.471326 31.238817 -3.2004068 82498
15.603498 31.490725 -3.22753 82499
15.74307 31.756733 -3.265717 82500
15.874575 32.007366 -3.2861547 82501
16.010672 32.266754 -3.3123622 82502
16.140024 32.513287 -3.3236241 82503
16.285389 32.790337 -3.3610957 82504
16.432604 33.070911 -3.3988612 82505
16.570171 33.333099 -3.4166095 82506
16.719625 33.617947 -3.4524105 82507
16.872395 33.909107 -3.4908955 82508
17.019783 34.190014 -3.5170226 82509
17.166098 34.468876 -3.5383859 82510
17.325949 34.773533 -3.5796647 82511
17.474506 35.056667 -3.5988159 82512
17.642582 35.377003 -3.6473475 82513
17.797836 35.672901 -3.6713905 82514
17.877832 35.825363 -3.5701048 82515
1.790777 5.2730174 -0.31432247 82639
1.8350493 5.3592963 -0.32516089 82640
1.8793172 5.4455662 -0.33957666 82641
1.9236709 5.5320034 -0.34957033 82642
1.9679832 5.6183605 -0.3711403 82643
2.0124133 5.704946 -0.38428652 82644
2.0569599 5.791759 -0.36900881 82645
2.1014373 5.878438 -0.36930576 82646
2.1459405 5.9651661 -0.38517809 82647
2.1905499 6.0521016 -0.41262278 82648
2.2351351 6.1389904 -0.41564277 82649
2.2798247 6.2260823 -0.43023586 82650
2.3244989 6.3131437 -0.43639886 82651
2.3692005 6.4002585 -0.4421376 82652
2.4140372 6.4876375 -0.45544136 82653
2.4589939 6.5752501 -0.47231504 82654
2.5040243 6.6630058 -0.48875314 82655
2.548892 6.7504449 -0.49276888 82656
2.5939553 6.8382649 -0.5043475 82657
2.6384156 6.9249096 -0.48752448 82658
2.6839387 7.0136261 -0.51421463 82659
2.7294691 7.1023564 -0.53646648 82660
2.7748628 7.1908202 -0.55029386 82661
2.8194427 7.2776985 -0.53574759 82662
2.865449 7.3673558 -0.56465781 82663
2.9107337 7.4556074 -0.56919038 82664
2.9559011 7.5436306 -0.56929803 82665
3.0015569 7.6326056 -0.58092791 82666
3.0471094 7.7213788 -0.58812797 82667
3.0925345 7.8099041 -0.59090644 82668
3.1396203 7.9016657 -0.62906808 82669
3.1849842 7.9900718 -0.62697065 82670
3.2309508 8.0796528 -0.63636929 82671
3.2771809 8.1697464 -0.64929134 82672
3.3232706 8.2595663 -0.657785 82673
3.3696368 8.349926 -0.66980094 82674
3.4156163 8.4395313 -0.67342424 82675
3.4611607 8.5282888 -0.66866475 82676
3.5079348 8.6194429 -0.68328542 82677
3.6006913 8.8002081 -0.69530118 82679
3.7888467 9.1668892 -0.74148607 82683
3.8370478 9.2608242 -0.76468331 82684
3.8832197 9.3508043 -0.75979286 82685
3.9316137 9.4451151 -0.78202981 82686
3.9775431 9.5346231 -0.77228087 82687
4.0247931 9.6267042 -0.77782017 82688
4.0737958 9.7222023 -0.80253971 82689
4.1211987 9.8145819 -0.80712026 82690
4.3136263 10.189588 -0.84418011 82694
4.3644314 10.288598 -0.87764096 82695
4.4118686 10.381044 -0.87541026 82696
4.4601431 10.475122 -0.88050926 82697
4.5097089 10.571716 -0.89681476 82698
4.5598016 10.669338 -0.91650319 82699
4.6078939 10.763062 -0.91621608 82700
4.6568975 10.858561 -0.92321789 82701
4.7068563 10.955921 -0.93748015 82702
4.7551289 11.049995 -0.93571222 82703
4.8070898 11.151258 -0.96444619 82704
4.8573608 11.249227 -0.97714359 82705
4.9086761 11.349231 -0.99704695 82706
4.9591656 11.447625 -1.0086814 82707
5.0082951 11.543369 -1.0082233 82708
5.057477 11.639216 -1.0072641 82709
5.1112266 11.743964 -1.0404145 82710
5.1580315 11.835178 -1.0191947 82711
5.2104974 11.937425 -1.0397192 82712
5.2673006 12.048123 -1.0903281 82713
5.3147817 12.140656 -1.0714146 82714
5.3681874 12.244734 -1.0940648 82715
5.4179111 12.341636 -1.0894191 82716
5.4710093 12.445114 -1.1071262 82717
5.5259295 12.552144 -1.1356695 82718
5.5793161 12.656185 -1.1522045 82719
5.6305218 12.755975 -1.15298 82720
5.6841378 12.860463 -1.16837 82721
5.7337317 12.957112 -1.1566931 82722
5.7845473 13.056143 -1.1520623 82723
5.841495 13.167124 -1.1846162 82724
5.8967948 13.274893 -1.2052236 82725
5.9541173 13.386604 -1.2364932 82726
6.003438 13.482721 -1.2183039 82727
6.0591407 13.591275 -1.2370958 82728
6.1137009 13.697603 -1.2477764 82729
6.1683788 13.80416 -1.2578552 82730
6.224493 13.913517 -1.2747897 82731
6.2814198 14.024456 -1.2948134 82732
6.3344541 14.12781 -1.2918928 82733
6.3923335 14.240606 -1.3143678 82734
6.4469323 14.34701 -1.3176641 82735
6.5051131 14.460394 -1.3388423 82736
6.5627556 14.572727 -1.3556591 82737
6.6141405 14.672868 -1.3386656 82738
6.6756139 14.792668 -1.3726085 82739
6.7300401 14.898735 -1.3691185 82740
6.7911458 15.017818 -1.3979964 82741
6.8457818 15.124294 -1.3932484 82742
6.9057288 15.24112 -1.4134406 82743
6.9635787 15.353858 -1.4220047 82744
7.021553 15.46684 -1.4299064 82745
7.0842729 15.589069 -1.4589056 82746
7.1440921 15.705646 -1.4726734 82747
7.2001371 15.814867 -1.4676816 82748
7.2618003 15.935038 -1.4872952 82749
7.3212414 16.050879 -1.4953839 82750
7.3816195 16.168543 -1.5063714 82751
7.4478331 16.297583 -1.5417176 82752
7.5110059 16.420694 -1.5619489 82753
7.5693951 16.534483 -1.5600296 82754
7.6295481 16.651711 -1.5645524 82755
7.6906648 16.770817 -1.5719221 82756
7.7510667 16.888529 -1.5750294 82757
7.815011 17.013144 -1.5915612 82758
7.8808537 17.141459 -1.614369 82759
7.9434161 17.263382 -1.6222982 82760
8.0078735 17.388996 -1.6364954 82761
8.0742655 17.518383 -1.6569096 82762
8.1417427 17.649883 -1.679993 82763
8.2040367 17.771284 -1.6813377 82764
8.2709761 17.901735 -1.6993097 82765
8.3371887 18.030773 -1.7129866 82766
8.4017372 18.156567 -1.7189337 82767
8.4766073 18.302475 -1.7620271 82768
8.5415125 18.428963 -1.7663034 82769
8.6074963 18.557552 -1.7732216 82770
8.6783581 18.695648 -1.7964338 82771
8.7465782 18.828596 -1.808507 82772
8.81497 18.96188 -1.8197258 82773
8.8825665 19.093615 -1.8266945 82774
8.9542103 19.233234 -1.8463616 82775
9.0270414 19.375168 -1.868487 82776
9.0991039 19.515604 -1.886305 82777
9.1683874 19.650627 -1.8931266 82778
9.2428322 19.795704 -1.9158131 82779
9.3175001 19.941219 -1.9375279 82780
9.3893509 20.081244 -1.9482861 82781
9.4624004 20.223604 -1.9614414 82782
9.5366669 20.368336 -1.9769633 82783
9.6101027 20.511448 -1.9882197 82784
9.6899605 20.667076 -2.0182581 82785
9.7617121 20.806906 -2.0209973 82786
9.8367767 20.953194 -2.0326238 82787
9.8548374 20.98839 -1.867311 82788
9.9837723 21.23966 -1.8219887 82790
13.61194 28.310295 -2.8417566 82828
13.725274 28.53116 -2.8684821 82829
13.833683 28.74243 -2.8823874 82830
13.948956 28.967077 -2.9085348 82831
14.068528 29.2001 -2.9412146 82832
14.187123 29.431221 -2.9693375 82833
14.314066 29.678608 -3.0120482 82834
14.428006 29.900658 -3.0256245 82835
14.550304 30.138994 -3.0537276 82836
14.674298 30.380636 -3.0826576 82837
14.797286 30.620316 -3.1070108 82838
14.927416 30.873917 -3.142818 82839
15.057929 31.128262 -3.1766129 82840
15.180588 31.3673 -3.1925476 82841
15.313194 31.625725 -3.2250001 82842
15.450324 31.892967 -3.2632351 82843
15.585083 32.15559 -3.2941275 82844
15.718822 32.416222 -3.3203299 82845
15.854321 32.680283 -3.3470294 82846
15.992989 32.95052 -3.3767393 82847
16.130627 33.21875 -3.4017274 82848
16.271452 33.493195 -3.4296331 82849
16.415491 33.773899 -3.4603655 82850
16.562765 34.060913 -3.4938374 82851
16.706161 34.340363 -3.5174985 82852
16.849924 34.620529 -3.5388982 82853
17.001238 34.915413 -3.5703583 82854
17.157286 35.219524 -3.6067669 82855
17.310862 35.518814 -3.6357937 82856
17.472103 35.833046 -3.6744919 82857
17.630873 36.142456 -3.7057731 82858
17.801754 36.475471 -3.7536695 82859
17.842554 36.554985 -3.5867803 82860
1.698395 5.202332 -0.31130034 82981
1.7417905 5.2888594 -0.32656458 82982
1.7853848 5.375783 -0.32941437 82983
1.8289844 5.4627171 -0.33183748 82984
1.8725551 5.5495939 -0.33783743 82985
1.9160696 5.6363583 -0.35541332 82986
1.9596323 5.7232189 -0.37656415 82987
2.0033603 5.8104086 -0.36129129 82988
2.0470083 5.8974395 -0.3895947 82989
2.0907233 5.9846034 -0.38947138 82990
2.1344931 6.071877 -0.40492395 82991
2.1782589 6.1591425 -0.40794912 82992
2.2220972 6.2465525 -0.41854644 82993
2.2660165 6.3341246 -0.43271706 82994
2.3101754 6.422174 -0.46245244 82995
2.353924 6.5094051 -0.45177215 82996
2.3980012 6.5972915 -0.46465233 82997
2.4419281 6.6848783 -0.46511018 82998
2.486093 6.7729397 -0.47712693 82999
2.5305653 6.8616138 -0.50069964 83000
2.5751381 6.9504886 -0.52383196 83001
2.6191103 7.0381656 -0.51856816 83002
2.6629643 7.125607 -0.5088833 83003
2.7078314 7.2150679 -0.53470027 83004
2.7520702 7.303277 -0.53612548 83005
2.7964587 7.3917842 -0.54110622 83006
2.8417139 7.4820194 -0.5695796 83007
2.8862135 7.5707479 -0.57368082 83008
2.9305897 7.6592307 -0.57335752 83009
2.9753051 7.7483897 -0.58056873 83010
3.0212569 7.840014 -0.61521173 83011
3.0661159 7.9294591 -0.6215235 83012
3.1117606 8.0204716 -0.64330971 83013
3.15751 8.1116924 -0.66463459 83014
3.2011483 8.1987028 -0.64177591 83015
3.2470183 8.290164 -0.66219765 83016
3.291255 8.3783684 -0.65039361 83017
3.3372653 8.4701099 -0.66990763 83018
3.382678 8.5606585 -0.6770547 83019
3.4288638 8.6527491 -0.69564283 83020
3.519738 8.8339453 -0.70369375 83022
3.567214 8.9286089 -0.73671353 83023
3.7054207 9.2041817 -0.76172805 83026
3.7522023 9.2974615 -0.7770257 83027
3.7969604 9.3867054 -0.76424599 83028
3.8432503 9.479003 -0.77072662 83029
3.8895979 9.5714169 -0.77674019 83030
3.9360032 9.6639452 -0.78228241 83031
3.9834638 9.7585783 -0.7991432 83032
4.0313663 9.8540916 -0.81944364 83033
4.2226424 10.235481 -0.87996453 83037
4.2669163 10.32376 -0.8547529 83038
4.3146119 10.418861 -0.86426651 83039
4.3635693 10.516478 -0.88499439 83040
4.4126501 10.614342 -0.9052 83041
4.4593983 10.707553 -0.90151924 83042
4.5074272 10.803319 -0.9090358 83043
4.5568051 10.901774 -0.92771018 83044
4.6067348 11.001331 -0.94973898 83045
4.6554794 11.098524 -0.95959836 83046
4.7034159 11.194105 -0.96119696 83047
4.7536826 11.294333 -0.98164368 83048
4.8017673 11.39021 -0.98222429 83049
4.8513155 11.489006 -0.99388653 83050
4.9009614 11.587996 -1.0050188 83051
4.9511895 11.688147 -1.019472 83052
4.999558 11.784589 -1.0180001 83053
5.0494757 11.884121 -1.0275482 83054
5.1025329 11.989913 -1.0595776 83055
5.1516504 12.08785 -1.0603579 83056
5.2013521 12.186952 -1.0644507 83057
5.2537794 12.291486 -1.0871174 83058
5.3052797 12.394175 -1.1015691 83059
5.3541722 12.491661 -1.0964017 83060
5.4097357 12.602451 -1.1363835 83061
5.4610395 12.704747 -1.1453252 83062
5.5118742 12.806108 -1.1499119 83063
5.5627913 12.907632 -1.1539485 83064
5.6184483 13.018608 -1.1876993 83065
5.6654592 13.112343 -1.1641396 83066
5.7219973 13.225077 -1.2004564 83067
5.773912 13.328589 -1.2059838 83068
5.8277526 13.435944 -1.2222209 83069
5.8804893 13.541097 -1.2303405 83070
5.9358349 13.651452 -1.2528653 83071
5.9888067 13.757072 -1.2597882 83072
6.040597 13.860338 -1.2586491 83073
6.0963478 13.971501 -1.2793188 83074
6.1489763 14.076439 -1.2807289 83075
6.204339 14.186828 -1.2964232 83076
6.2558198 14.289475 -1.2892199 83077
6.3120937 14.401682 -1.3073828 83078
6.3692031 14.515553 -1.3285853 83079
6.4271688 14.631132 -1.352811 83080
6.4776192 14.731726 -1.3358321 83081
6.5358567 14.847847 -1.3587568 83082
6.5921273 14.960047 -1.3699821 83083
6.6521306 15.079688 -1.3988677 83084
6.7079654 15.191018 -1.4050933 83085
6.7653823 15.305503 -1.4179734 83086
6.8221946 15.418782 -1.4265372 83087
6.8768835 15.527827 -1.4235388 83088
6.9377012 15.649094 -1.4489328 83089
6.995657 15.764652 -1.4591092 83090
7.0537448 15.880474 -1.4686037 83091
7.1150732 16.002758 -1.4918292 83092
7.1695261 16.111334 -1.4819338 83093
7.2319536 16.235809 -1.507316 83094
7.2953749 16.362267 -1.5355078 83095
7.3493381 16.469864 -1.5200284 83096
7.4122777 16.595362 -1.5431677 83097
7.4786882 16.727777 -1.5797583 83098
7.5379038 16.84585 -1.5835551 83099
7.5989046 16.96748 -1.5937287 83100
7.6634102 17.0961 -1.6172951 83101
7.7196407 17.20822 -1.6048015 83102
7.7819076 17.332375 -1.6162783 83103
7.8486328 17.465418 -1.6445376 83104
7.9112372 17.590246 -1.6544385 83105
7.9748654 17.717115 -1.6670631 83106
8.0395365 17.846064 -1.6823846 83107
8.1079311 17.982439 -1.7107888 83108
8.1711807 18.108553 -1.7175158 83109
8.2363758 18.238546 -1.7303771 83110
8.3035545 18.372496 -1.7493145 83111
8.3700085 18.505001 -1.7639525 83112
8.4357176 18.636019 -1.7743186 83113
8.5053005 18.774761 -1.7975395 83114
8.5722904 18.908333 -1.8096212 83115
8.6385059 19.040363 -1.8174461 83116
8.7067747 19.176485 -1.8312199 83117
8.777133 19.316772 -1.8508863 83118
8.8448086 19.451714 -1.8595091 83119
8.919425 19.600492 -1.8908288 83120
8.9913673 19.743942 -1.9110765 83121
9.055665 19.872145 -1.9036005 83122
9.1329136 20.026173 -1.9387131 83123
9.2004843 20.160902 -1.9394965 83124
9.2792063 20.317869 -1.9759165 83125
9.3451042 20.449265 -1.9682494 83126
9.4242954 20.607164 -2.0026362 83127
9.4976349 20.753397 -2.0162017 83128
9.5711679 20.900017 -2.0287938 83129
9.638689 21.034649 -2.0207973 83130
9.7084017 21.173649 -2.0184591 83131
13.57021 28.873789 -2.8896968 83173
13.6873 29.107256 -2.9241388 83174
13.799541 29.331057 -2.9457457 83175
13.912089 29.55547 -2.9656408 83176
14.027555 29.7857 -2.9892764 83177
14.156498 30.042801 -3.0383158 83178
14.271327 30.271761 -3.055563 83179
14.395738 30.519827 -3.0898917 83180
14.516518 30.760651 -3.1142354 83181
14.642975 31.012796 -3.1473675 83182
14.761744 31.249615 -3.1625931 83183
14.887547 31.500454 -3.1891789 83184
15.019105 31.762772 -3.2243049 83185
15.146969 32.017723 -3.2495005 83186
15.283352 32.289658 -3.2882886 83187
15.4174 32.556942 -3.3197241 83188
15.547704 32.816757 -3.341306 83189
15.685232 33.090977 -3.3736308 83190
15.827291 33.374229 -3.4114015 83191
15.961429 33.641689 -3.4316823 83192
16.105656 33.929264 -3.4674728 83193
16.246092 34.209286 -3.4934177 83194
16.381285 34.478848 -3.5071366 83195
16.53228 34.779922 -3.5459771 83196
16.683701 35.081841 -3.5823624 83197
16.83695 35.387413 -3.618732 83198
16.983513 35.679642 -3.6404114 83199
17.137571 35.986824 -3.6718431 83200
17.293467 36.297665 -3.7031705 83201
17.455511 36.620773 -3.7415323 83202
17.623758 36.956242 -3.7867537 83203
17.769348 37.246536 -3.7912939 83204
17.944246 37.595268 -3.8405678 83205
18.125452 37.956577 -3.8962867 83206
18.240067 38.185112 -3.8419788 83207
18.411846 38.52763 -3.8760786 83208
18.642784 38.988098 -3.9992175 83209
18.7096 39.121326 -3.8626497 83210
1.606329 5.1303315 -0.31973845 83323
1.6920238 5.3052931 -0.31472319 83325
1.7345835 5.3921866 -0.33356637 83326
1.7774498 5.4797068 -0.32799751 83327
1.8200954 5.5667753 -0.34599897 83328
1.8628308 5.6540279 -0.35957512 83329
1.9055632 5.7412744 -0.38473135 83330
1.948465 5.828866 -0.37746331 83331
1.9913318 5.9163866 -0.38176924 83332
2.0342321 6.0039763 -0.39765045 83333
2.0771658 6.0916333 -0.40510452 83334
2.1202142 6.1795244 -0.42813247 83335
2.1631496 6.2671852 -0.42273447 83336
2.2061028 6.3548822 -0.42091134 83337
2.2493627 6.4432058 -0.44665283 83338
2.2924654 6.5312076 -0.45196944 83339
2.3355334 6.6191392 -0.45285901 83340
2.3788798 6.7076392 -0.46931145 83341
2.4220705 6.7958212 -0.47333968 83342
2.465863 6.8852315 -0.50490814 83343
2.5089715 6.9732456 -0.50007927 83344
2.5523643 7.0618401 -0.50680459 83345
2.5957923 7.1505065 -0.5130977 83346
2.6397088 7.24017 -0.53492457 83347
2.6832359 7.3290391 -0.5403434 83348
2.7271819 7.4187636 -0.55729532 83349
2.7702522 7.5066991 -0.54588699 83350
2.8141563 7.5963378 -0.55797029 83351
2.8588796 7.6876488 -0.5895403 83352
2.9027836 7.777287 -0.59674811 83353
2.9467318 7.8670158 -0.60351205 83354
2.9914215 7.9582582 -0.6257562 83355
3.03585 8.0489674 -0.63958442 83356
3.0784519 8.1359472 -0.61319625 83357
3.1245272 8.2300186 -0.65793604 83358
3.1693585 8.3215494 -0.67438382 83359
3.2123597 8.4093447 -0.6546337 83360
3.2575109 8.5015297 -0.67414844 83361
3.3023043 8.5929832 -0.68526429 83362
3.3469286 8.6840925 -0.69195855 83363
3.3923333 8.7767944 -0.71008104 83364
3.4821346 8.9601412 -0.72513205 83366
3.6190765 9.2397337 -0.76992399 83369
3.6626823 9.328763 -0.75365531 83370
3.7092195 9.4237776 -0.77638096 83371
3.7528372 9.5128307 -0.75921786 83372
3.7998469 9.6088104 -0.784926 83373
3.8450744 9.7011509 -0.78653318 83374
3.891649 9.7962418 -0.80339491 83375
3.9383225 9.8915348 -0.81976879 83376
4.1230836 10.26876 -0.84899729 83380
4.1709247 10.366436 -0.87073529 83381
4.2192688 10.465138 -0.89586115 83382
4.2654305 10.559387 -0.89705002 83383
4.3116393 10.65373 -0.89775676 83384
4.3582954 10.748988 -0.90187699 83385
4.4037833 10.84186 -0.89383644 83386
4.4530349 10.942417 -0.92030281 83387
4.5020099 11.042408 -0.9423452 83388
4.550684 11.141786 -0.95997113 83389
4.5985961 11.239607 -0.96932095 83390
4.6456995 11.335778 -0.9704172 83391
4.6933103 11.432983 -0.97487998 83392
4.742372 11.533153 -0.99041504 83393
4.7915444 11.633548 -1.0054102 83394
4.8417788 11.73611 -1.0275681 83395
4.8873177 11.829086 -1.0107062 83396
4.9397154 11.936067 -1.047155 83397
4.9923086 12.043446 -1.0830027 83398
5.0370078 12.134707 -1.0569388 83399
5.0847406 12.232163 -1.0533844 83400
5.1371989 12.339266 -1.0837139 83401
5.1877217 12.442418 -1.098174 83402
5.2367558 12.54253 -1.1006376 83403
5.2864022 12.643892 -1.1063725 83404
5.3394284 12.752155 -1.1343606 83405
5.3903975 12.856218 -1.1465567 83406
5.4426045 12.96281 -1.1657577 83407
5.4955211 13.070848 -1.1881454 83408
5.541647 13.165023 -1.1645893 83409
5.5977063 13.279479 -1.2046819 83410
5.645093 13.376227 -1.1876119 83411
5.6996841 13.487686 -1.2151624 83412
5.7495914 13.589581 -1.2120366 83413
5.8032441 13.699122 -1.2308475 83414
5.8564191 13.80769 -1.2452955 83415
5.9078345 13.912663 -1.2479194 83416
5.9625134 14.024302 -1.2686144 83417
6.0154171 14.132314 -1.2774925 83418
6.0671287 14.237892 -1.2783294 83419
6.1268101 14.359744 -1.3231066 83420
6.180759 14.469891 -1.3338062 83421
6.2328124 14.576167 -1.3327878 83422
6.2869773 14.686755 -1.3422489 83423
6.3412585 14.797581 -1.3510787 83424
6.3949628 14.907228 -1.355597 83425
6.4529672 15.025655 -1.381512 83426
6.5076189 15.137237 -1.3884044 83427
6.5630951 15.250502 -1.3983117 83428
6.6201382 15.366965 -1.4148595 83429
6.6744189 15.47779 -1.4161534 83430
6.7324672 15.596306 -1.4349835 83431
6.7877083 15.709091 -1.4386005 83432
6.8490453 15.834323 -1.4705197 83433
6.9045482 15.947642 -1.4727724 83434
6.9624405 16.06584 -1.4851815 83435
7.020473 16.184324 -1.4968857 83436
7.0809751 16.307852 -1.5186517 83437
7.140089 16.428543 -1.5325011 83438
7.1969819 16.544701 -1.534901 83439
7.2531829 16.659445 -1.5330526 83440
7.3199301 16.795723 -1.5767875 83441
7.37397 16.906055 -1.5628473 83442
7.4337807 17.02817 -1.5730746 83443
7.4978561 17.158991 -1.600229 83444
7.5604753 17.28684 -1.6195097 83445
7.6224351 17.413343 -1.6344764 83446
7.6837134 17.538454 -1.6451536 83447
7.7485456 17.67082 -1.6690618 83448
7.8092861 17.794834 -1.6746756 83449
7.8736167 17.926178 -1.6934637 83450
7.9355159 18.052557 -1.7010005 83451
7.996676 18.177425 -1.7042943 83452
8.0615015 18.30978 -1.7206507 83453
8.1309605 18.451593 -1.7534122 83454
8.2006607 18.593901 -1.785246 83455
8.264267 18.723764 -1.7921318 83456
8.3261938 18.850199 -1.7913634 83457
8.3983335 18.997486 -1.8273542 83458
8.4587145 19.120764 -1.8181224 83459
8.5275593 19.261324 -1.838691 83460
8.5984812 19.406124 -1.8651147 83461
8.6639633 19.53982 -1.8703283 83462
8.7343435 19.683514 -1.8915266 83463
8.8030176 19.823725 -1.9050683 83464
8.8718719 19.964304 -1.9176973 83465
8.9399338 20.103264 -1.9260784 83466
9.0140142 20.254515 -1.9535276 83467
9.0834208 20.396219 -1.9633695 83468
9.154974 20.542309 -1.9789062 83469
9.2277174 20.690828 -1.9967757 83470
9.2986622 20.835676 -2.0070767 83471
9.3667593 20.974709 -2.0065899 83472
9.4380369 21.120235 -2.015013 83473
9.4666309 21.178616 -1.8856114 83474
13.522572 29.459581 -2.9468155 83518
13.633 29.685043 -2.9667189 83519
13.751437 29.926853 -3.0012877 83520
13.866353 30.161476 -3.0258241 83521
13.982882 30.399391 -3.0512583 83522
14.106241 30.651253 -3.0883164 83523
14.220821 30.885189 -3.1046414 83524
14.339631 31.127762 -3.1271696 83525
14.460073 31.373667 -3.1504676 83526
14.592734 31.64452 -3.1956139 83527
14.719172 31.902666 -3.2254677 83528
14.843296 32.15609 -3.2480578 83529
14.977106 32.429287 -3.2868695 83530
15.099234 32.678631 -3.3002174 83531
15.233778 32.953331 -3.3347871 83532
15.368702 33.228806 -3.3671634 83533
15.517567 33.532738 -3.4228139 83534
15.643753 33.790371 -3.4329166 83535
15.789361 34.087658 -3.4762788 83536
15.924424 34.363415 -3.497179 83537
16.061207 34.642685 -3.5183747 83538
16.198334 34.922653 -3.5373387 83539
16.351038 35.234428 -3.5811846 83540
16.502789 35.544258 -3.6200333 83541
16.645195 35.835007 -3.6392841 83542
16.79915 36.149334 -3.6755924 83543
16.947901 36.453037 -3.6996861 83544
17.11393 36.792015 -3.7500682 83545
17.2663 37.103107 -3.7738187 83546
17.426138 37.429447 -3.806875 83547
17.589235 37.76244 -3.8419533 83548
17.764175 38.119614 -3.893007 83549
17.925291 38.448563 -3.9178154 83550
18.099724 38.804699 -3.960722 83551
18.277502 39.167664 -4.0052519 83552
18.458643 39.537502 -4.0513101 83553
18.606941 39.840279 -4.0420828 83554
18.630526 39.888428 -3.83653 83555
1.6034303 5.2318816 -0.31963161 83667
1.6873325 5.4070435 -0.33376423 83669
1.7292745 5.4946055 -0.34419635 83670
1.7712191 5.5821729 -0.35820091 83671
1.8133341 5.6700959 -0.35178816 83672
1.8552871 5.7576809 -0.3769463 83673
1.8973877 5.8455744 -0.37768254 83674
1.9394826 5.933455 -0.39399168 83675
1.9816147 6.0214138 -0.39387715 83676
2.023773 6.1094279 -0.40133643 83677
2.0659599 6.1975012 -0.40836936 83678
2.1081746 6.2856321 -0.41497535 83679
2.1504529 6.3738961 -0.42515442 83680
2.1929023 6.4625177 -0.44690207 83681
2.2353361 6.551106 -0.4602184 83682
2.2776484 6.6394415 -0.46111268 83683
2.3201025 6.7280722 -0.46957362 83684
2.3622997 6.8161674 -0.46161649 83685
2.4052045 6.9057393 -0.48919564 83686
2.4478667 6.9948049 -0.50035441 83687
2.4902909 7.0833731 -0.49909717 83688
2.5331345 7.1728172 -0.51338154 83689
2.5761535 7.2626281 -0.53121972 83690
2.6187761 7.3516107 -0.53265548 83691
2.6621733 7.4422107 -0.55759227 83692
2.7047408 7.5310788 -0.55416387 83693
2.7477334 7.6208339 -0.56226414 83694
2.7907705 7.7106819 -0.56992346 83695
2.8344767 7.8019276 -0.59307778 83696
2.8779593 7.8927054 -0.60781282 83697
2.9211712 7.9829187 -0.61413795 83698
2.9644241 8.0732174 -0.62002146 83699
3.0075319 8.1632128 -0.6214816 83700
3.0522153 8.2564983 -0.65429938 83701
3.0956335 8.3471422 -0.65883183 83702
3.139298 8.4383001 -0.66689187 83703
3.1838801 8.531374 -0.69037175 83704
3.2261112 8.6195393 -0.6697523 83705
3.2706013 8.7124214 -0.68835193 83706
3.3135145 8.8020105 -0.67875159 83707
3.3601098 8.8992872 -0.72810256 83708
3.5815046 9.3614912 -0.76193583 83713
3.6248965 9.4520807 -0.75312036 83714
3.89557 10.017163 -0.81252402 83720
4.0800872 10.402379 -0.87117636 83724
4.1257048 10.497614 -0.87677854 83725
4.172143 10.594563 -0.88969696 83726
4.2182846 10.690892 -0.8982119 83727
4.2656837 10.789846 -0.91791511 83728
4.3111911 10.884852 -0.91764224 83729
4.3567419 10.979948 -0.91688561 83730
4.4044166 11.079478 -0.93505406 83731
4.4513578 11.177477 -0.94493926 83732
4.4996767 11.278352 -0.96593118 83733
4.5468068 11.376745 -0.97477454 83734
4.5949101 11.47717 -0.99083185 83735
4.6390471 11.569315 -0.9716109 83736
4.6891441 11.673902 -1.0020571 83737
4.7370701 11.773956 -1.0126746 83738
4.7869864 11.878166 -1.0381427 83739
4.8351245 11.978663 -1.0476729 83740
4.8833523 12.079349 -1.0566703 83741
4.9311724 12.179182 -1.0612961 83742
4.980073 12.281272 -1.0730494 83743
5.0275421 12.380372 -1.0727872 83744
5.0776577 12.484999 -1.0910845 83745
5.1273761 12.588795 -1.1049954 83746
5.1756091 12.68949 -1.1069249 83747
5.2271466 12.797085 -1.1311179 83748
5.2788367 12.904998 -1.1547081 83749
5.3284626 13.008601 -1.1625372 83750
5.381547 13.119426 -1.192502 83751
5.4274235 13.215202 -1.172724 83752
5.4807682 13.326569 -1.2014939 83753
5.5296297 13.428576 -1.1994995 83754
5.5791397 13.531938 -1.2007142 83755
5.6311083 13.640432 -1.2163879 83756
5.6850152 13.752974 -1.2426977 83757
5.736649 13.860769 -1.2533894 83758
5.789012 13.970087 -1.2672127 83759
5.8402491 14.077054 -1.2729627 83760
5.8934765 14.188176 -1.2892873 83761
5.9462004 14.298247 -1.3012609 83762
5.9996901 14.409918 -1.3163208 83763
6.0513539 14.517776 -1.3196334 83764
6.1050873 14.629955 -1.3334347 83765
6.1589503 14.742404 -1.3465912 83766
6.2129412 14.855121 -1.3591022 83767
6.2697811 14.973785 -1.3856739 83768
6.3199291 15.078478 -1.3748399 83769
6.373589 15.190504 -1.3817538 83770
6.429462 15.307149 -1.3989917 83771
6.4854841 15.424106 -1.4155452 83772
6.5402236 15.538385 -1.4241264 83773
6.5972466 15.657433 -1.4429499 83774
6.6522422 15.772246 -1.450182 83775
6.711031 15.894979 -1.4748485 83776
6.7662907 16.010344 -1.4807092 83777
6.8216629 16.125944 -1.4859012 83778
6.8779016 16.243353 -1.4940146 83779
6.9388394 16.370573 -1.5229712 83780
6.9930553 16.483759 -1.5189106 83781
7.0543365 16.611696 -1.5463662 83782
7.1150341 16.738413 -1.5694602 83783
7.1672287 16.84738 -1.5526373 83784
7.228219 16.974709 -1.5742584 83785
7.2909946 17.105764 -1.6021751 83786
7.3474994 17.223728 -1.6010022 83787
7.4122643 17.358938 -1.63439 83788
7.4714966 17.482595 -1.6422951 83789
7.5325208 17.609997 -1.6564704 83790
7.5895228 17.728998 -1.6523576 83791
7.6525149 17.860508 -1.6719874 83792
7.7182369 17.997713 -1.7012405 83793
7.7816091 18.130016 -1.7191914 83794
7.8417077 18.255484 -1.7224464 83795
7.9010611 18.379395 -1.7214801 83796
7.9684024 18.519983 -1.7508017 83797
8.0333204 18.655512 -1.7688911 83798
8.0984221 18.791424 -1.7861201 83799
8.1663876 18.933315 -1.8127505 83800
8.2282619 19.062489 -1.8145684 83801
8.2929831 19.197607 -1.825798 83802
8.356039 19.329248 -1.8293829 83803
8.4265919 19.476542 -1.8592269 83804
8.4899645 19.608843 -1.8610905 83805
8.5637321 19.762848 -1.8991557 83806
8.6255531 19.891911 -1.8925424 83807
8.6988258 20.044882 -1.9253024 83808
8.7685394 20.190422 -1.9436822 83809
8.8384504 20.336374 -1.9611083 83810
8.9008379 20.466621 -1.9510283 83811
8.9769135 20.625444 -1.9864612 83812
9.0532551 20.784821 -2.0208123 83813
9.112154 20.907785 -1.9948739 83814
9.1819782 21.053556 -2.0042715 83815
9.2509785 21.197605 -2.0094402 83816
9.3101149 21.321064 -1.9810873 83817
9.3339968 21.370922 -1.8382872 83818
9.5091343 21.736557 -1.9593705 83820
13.48794 30.043076 -2.9999547 83863
13.596992 30.270744 -3.0163591 83864
13.719053 30.52557 -3.0580895 83865
13.83766 30.773184 -3.0897493 83866
13.947625 31.002758 -3.100728 83867
14.066874 31.251713 -3.1286259 83868
14.192919 31.514856 -3.1678562 83869
14.307661 31.754404 -3.1812522 83870
14.431806 32.01358 -3.2111967 83871
14.561529 32.284401 -3.2495644 83872
14.68638 32.545052 -3.2753844 83873
14.815522 32.814659 -3.3069236 83874
14.943702 33.08226 -3.3337567 83875
15.077535 33.36166 -3.3687224 83876
15.21441 33.647415 -3.4065559 83877
15.347665 33.92561 -3.4345033 83878
15.485302 34.212955 -3.4677999 83879
15.620623 34.495464 -3.4937799 83880
15.761705 34.789997 -3.527483 83881
15.897748 35.074013 -3.5488975 83882
16.043657 35.378628 -3.585309 83883
16.184505 35.672676 -3.6094444 83884
16.324345 35.964615 -3.6287823 83885
16.482391 36.294571 -3.6772943 83886
16.638134 36.619713 -3.7182755 83887
16.790157 36.937088 -3.7494068 83888
16.948124 37.266876 -3.7874796 83889
17.106518 37.597553 -3.8228512 83890
17.263931 37.926186 -3.8531544 83891
17.414738 38.241024 -3.8690622 83892
17.595417 38.618221 -3.9312603 83893
17.758289 38.958248 -3.9602432 83894
17.931465 39.31979 -4.0025058 83895
18.120708 39.71487 -4.0668759 83896
18.300535 40.090294 -4.1120334 83897
18.467991 40.439888 -4.1337571 83898
18.590027 40.69466 -4.0809073 83899
1.6352208 5.4227967 -0.33416712 84012
1.676164 5.5104246 -0.36060265 84013
1.7174203 5.598722 -0.35862118 84014
1.7587131 5.6870975 -0.34821743 84015
1.7998309 5.7750983 -0.36938372 84016
1.8410984 5.86342 -0.35812905 84017
1.8823023 5.9516053 -0.3904472 84018
1.9235913 6.0399728 -0.39834204 84019
1.9648963 6.1283746 -0.40180901 84020
2.0062959 6.216979 -0.42084923 84021
2.047684 6.3055582 -0.4274658 84022
2.0892043 6.3944206 -0.44564971 84023
2.1304123 6.482615 -0.42741472 84024
2.1720552 6.5717402 -0.44874063 84025
2.2137244 6.6609211 -0.46563599 84026
2.2552671 6.7498317 -0.47010753 84027
2.2970483 6.8392529 -0.48613855 84028
2.3388169 6.9286466 -0.49773699 84029
2.3802886 7.017405 -0.49292442 84030
2.4224098 7.1075535 -0.51564187 84031
2.4642186 7.1970339 -0.52194518 84032
2.5062783 7.2870502 -0.53579974 84033
2.5481672 7.3767023 -0.54123175 84034
2.5907063 7.4677453 -0.56617421 84035
2.6324332 7.5570498 -0.56275129 84036
2.6742992 7.6466522 -0.5628866 84037
2.7167623 7.7375326 -0.57852763 84038
2.7596042 7.8292236 -0.60168576 84039
2.8020663 7.9201016 -0.61244631 84040
2.8444166 8.0107412 -0.61877745 84041
2.8866324 8.1010914 -0.62068874 84042
2.9290562 8.1918879 -0.62613374 84043
2.9713292 8.282361 -0.62716144 84044
3.0155971 8.3771048 -0.6674729 84045
3.0571716 8.4660826 -0.65171099 84046
3.1010389 8.5599689 -0.67917973 84047
3.1443729 8.6527128 -0.69427282 84048
3.1821229 8.7335062 -0.60980076 84049
3.2724321 8.9267874 -0.69717872 84051
3.3172445 9.0226965 -0.73022175 84052
3.4907489 9.3940334 -0.75484055 84056
3.5363886 9.4917126 -0.78941035 84057
3.9784317 10.437781 -0.85643488 84067
4.0245619 10.53651 -0.8776862 84068
4.0704379 10.634695 -0.89451599 84069
4.1152802 10.730667 -0.89913875 84070
4.1590214 10.824283 -0.89159077 84071
4.2078924 10.928878 -0.93414968 84072
4.2501521 11.019322 -0.91006809 84073
4.2972612 11.120147 -0.93213761 84074
4.3440819 11.220353 -0.94979119 84075
4.3910136 11.320798 -0.96691626 84076
4.4371963 11.419638 -0.9757694 84077
4.4825859 11.516782 -0.97637767 84078
4.5302444 11.618781 -0.99578685 84079
4.5766716 11.718145 -1.0030813 84080
4.6245494 11.820615 -1.0214096 84081
4.6711512 11.920352 -1.0276471 84082
4.7164121 12.01722 -1.0218372 84083
4.766016 12.123384 -1.0500612 84084
4.8123746 12.222602 -1.0508769 84085
4.8612571 12.327221 -1.0703088 84086
4.9122677 12.436396 -1.1044526 84087
4.9583874 12.535102 -1.0998216 84088
5.0066051 12.638298 -1.1099224 84089
5.0543976 12.740584 -1.1156608 84090
5.1033263 12.845303 -1.1284529 84091
5.1512928 12.947961 -1.1330861 84092
5.2004213 13.053106 -1.1447476 84093
5.2513032 13.162005 -1.1671851 84094
5.3001056 13.266453 -1.1739012 84095
5.3489962 13.37109 -1.1800492 84096
5.4042492 13.489343 -1.2270598 84097
5.4528122 13.593279 -1.2282456 84098
5.4991097 13.692366 -1.2138546 84099
5.5519257 13.805403 -1.2401809 84100
5.5995235 13.907272 -1.2321775 84101
5.6520014 14.019588 -1.2535206 84102
5.7046294 14.132223 -1.2742254 84103
5.7574053 14.245174 -1.2942845 84104
5.8097014 14.3571 -1.3099805 84105
5.8602309 14.465244 -1.3139068 84106
5.91085 14.573581 -1.3172356 84107
5.9654346 14.690403 -1.3421463 84108
6.0188804 14.804789 -1.3589915 84109
6.0685072 14.911 -1.353076 84110
6.1215239 15.024467 -1.3649644 84111
6.1739902 15.136758 -1.372533 84112
6.2286057 15.253647 -1.3904521 84113
6.2840552 15.372321 -1.4113439 84114
6.3389707 15.489852 -1.4278872 84115
6.3912287 15.601696 -1.4291739 84116
6.4428692 15.712217 -1.4261961 84117
6.498868 15.832067 -1.4443594 84118
6.5571809 15.95687 -1.4726709 84119
6.6113229 16.072744 -1.478552 84120
6.6692448 16.196711 -1.5017843 84121
6.7236385 16.313126 -1.5062811 84122
6.7818766 16.437767 -1.5280533 84123
6.8350096 16.551483 -1.523995 84124
6.8943038 16.678387 -1.5478802 84125
6.9484105 16.794186 -1.546025 84126
7.0087948 16.923422 -1.5719653 84127
7.0607886 17.0347 -1.558058 84128
7.1230559 17.167965 -1.5895703 84129
7.1839519 17.298296 -1.613178 84130
7.2418342 17.422178 -1.6218765 84131
7.302269 17.551521 -1.6403791 84132
7.357183 17.66905 -1.6335213 84133
7.4203677 17.804279 -1.6609844 84134
7.4812803 17.934645 -1.6771179 84135
7.5440216 18.068924 -1.6994087 84136
7.6035972 18.19643 -1.7069566 84137
7.666688 18.331457 -1.7275901 84138
7.730814 18.468702 -1.7508296 84139
7.7899895 18.59535 -1.7525049 84140
7.8527379 18.729647 -1.7671677 84141
7.9200053 18.873613 -1.7981426 84142
7.9778557 18.997425 -1.7905412 84143
8.041091 19.132761 -1.8026739 84144
8.1116009 19.28367 -1.8411844 84145
8.1752052 19.419796 -1.8515341 84146
8.2362595 19.550467 -1.8508686 84147
8.3028803 19.693048 -1.8696536 84148
8.3742619 19.845821 -1.9043489 84149
8.4348469 19.975485 -1.8977388 84150
8.5085049 20.133131 -1.937199 84151
8.5759029 20.277378 -1.9522276 84152
8.6434813 20.422009 -1.9663204 84153
8.7112389 20.567024 -1.9794714 84154
8.7791719 20.712418 -1.9916819 84155
8.8453655 20.854088 -1.9963487 84156
8.9088163 20.989883 -1.990236 84157
8.9723759 21.125916 -1.9832711 84158
9.048728 21.289326 -2.0179489 84159
9.1155243 21.432285 -2.0189152 84160
9.1706066 21.550173 -1.9799745 84161
9.439415 22.125481 -1.9713748 84165
13.427499 30.660854 -3.0663941 84208
13.536215 30.893532 -3.0818944 84209
13.64898 31.134874 -3.1036689 84210
13.765831 31.38496 -3.1315916 84211
13.886808 31.643877 -3.1655409 84212
14.008137 31.903547 -3.1974716 84213
14.124701 32.153023 -3.2168655 84214
14.251821 32.425083 -3.2552478 84215
14.371594 32.681427 -3.2758794 84216
14.496842 32.949486 -3.3048697 84217
14.627618 33.22937 -3.3420515 84218
14.756169 33.504501 -3.3718972 84219
14.881153 33.771996 -3.3919251 84220
15.023486 34.076618 -3.4428017 84221
15.153107 34.354034 -3.4660182 84222
15.293614 34.654751 -3.5070958 84223
15.427904 34.942162 -3.5332918 84224
15.562546 35.230324 -3.5572011 84225
15.704196 35.533485 -3.5911477 84226
15.844895 35.834614 -3.6202064 84227
15.991329 36.148014 -3.6565988 84228
16.136814 36.459385 -3.6880317 84229
16.282684 36.77158 -3.7169509 84230
16.432997 37.093277 -3.7505381 84231
16.582344 37.412918 -3.7791281 84232
16.734802 37.739208 -3.8098645 84233
16.894495 38.080986 -3.8497174 84234
17.05736 38.429554 -3.8914444 84235
17.223421 38.784958 -3.9349566 84236
17.385782 39.132446 -3.9685969 84237
17.552713 39.489716 -4.0062714 84238
17.718687 39.84494 -4.038712 84239
18.269573 41.023952 -4.1990705 84242
18.447161 41.404034 -4.2348008 84243
18.53771 41.597824 -4.1302562 84244
1.5857651 5.4375052 -0.33029237 84355
1.6260153 5.5257368 -0.34473389 84356
1.6664673 5.6144104 -0.33875334 84357
1.7066811 5.7025619 -0.3683455 84358
1.7471625 5.7912998 -0.35751858 84359
1.787529 5.8797865 -0.3782655 84360
1.827971 5.9684381 -0.39458603 84361
1.8684551 6.0571823 -0.39848396 84362
1.9090285 6.1461225 -0.42595297 84363
1.9495434 6.2349339 -0.42099649 84364
1.9901226 6.3238864 -0.42761573 84365
2.0307283 6.4128976 -0.43380401 84366
2.0713174 6.5018716 -0.43556675 84367
2.1122584 6.5916176 -0.46489131 84368
2.1528616 6.6806226 -0.46179846 84369
2.1937122 6.7701697 -0.47426802 84370
2.2345436 6.8596749 -0.48230618 84371
2.2755659 6.9495993 -0.49790573 84372
2.3164825 7.0392914 -0.50508142 84373
2.3574331 7.1290584 -0.51182163 84374
2.3982186 7.2184634 -0.5101428 84375
2.4395413 7.3090453 -0.52799523 84376
2.4808252 7.3995428 -0.54141408 84377
2.5222905 7.4904375 -0.55838197 84378
2.5634444 7.5806503 -0.56293899 84379
2.6046278 7.6709275 -0.56706321 84380
2.6461256 7.7618933 -0.57872081 84381
