# .PCD v0.7 - Point Cloud Data file format
VERSION 0.7
FIELDS x y z intensity
SIZE 4 4 4 4
TYPE F F F F
COUNT 1 1 1 1
WIDTH 1227
HEIGHT 1
VIEWPOINT 0 0 0 1 0 0 0
POINTS 1227
DATA ascii
0.73507726 -21.333508 -1.967975 194971
0.73443788 -21.506207 -2.0103192 194972
0.73390782 -21.649357 -2.0044522 194973
0.73332065 -21.807951 -2.0213037 194974
0.73269945 -21.975727 -2.0506215 194975
0.73210883 -22.135248 -2.0655715 194976
0.73156583 -22.281902 -2.0596035 194977
0.73095584 -22.446646 -2.0793746 194978
0.7303524 -22.609621 -2.094851 194979
0.72972226 -22.779816 -2.1192634 194980
0.7291491 -22.934616 -2.1196127 194981
0.72860861 -23.080582 -2.1059411 194982
0.72539479 -23.948469 -1.9905852 194984
0.72468197 -24.140999 -2.0321889 194985
0.72323811 -24.531118 -2.334897 194986
0.72261423 -24.699614 -2.3381033 194987
0.72196203 -24.875767 -2.3498356 194988
0.72131711 -25.049932 -2.3573236 194989
0.72064346 -25.231884 -2.3732193 194990
0.71990395 -25.43162 -2.4100125 194991
0.71928144 -25.599745 -2.4047666 194992
0.7187224 -25.750702 -2.3766441 194993
0.71809793 -25.919359 -2.3694584 194994
0.71064883 -27.931261 -2.5926912 194999
0.71048921 -27.974272 -2.4264104 195000
0.70756865 -28.763157 -2.6578612 195003
0.70675087 -28.984032 -2.68328 195004
0.70628327 -29.11027 -2.6046634 195005
0.70595831 -29.197962 -2.4845507 195006
0.70274973 -30.064655 -2.7537513 195009
0.70188767 -30.297489 -2.7790799 195010
0.70102316 -30.530993 -2.8028445 195011
0.70012492 -30.77359 -2.8335781 195012
0.69930756 -30.994329 -2.8399925 195013
0.69926476 -31.005774 -2.6361568 195014
0.69182694 -33.014755 -3.0599084 195021
0.69078368 -33.296539 -3.1037161 195022
0.68981338 -33.558594 -3.1265814 195023
0.68986869 -33.54353 -2.8942902 195024
0.68265879 -35.490932 -3.3035965 195030
0.68153268 -35.795097 -3.3426998 195031
0.68040317 -36.100163 -3.3796275 195032
0.67927039 -36.406109 -3.4143705 195033
0.67821395 -36.691422 -3.4289765 195034
0.67709798 -36.992844 -3.4543245 195035
0.67597896 -37.295055 -3.477519 195036
0.67489153 -37.588749 -3.4909894 195037
0.67372084 -37.904938 -3.5199435 195038
0.67246598 -38.243858 -3.5640929 195039
0.67131197 -38.555534 -3.5834248 195040
0.67130828 -38.556396 -3.3561175 195041
0.66208702 -41.047081 -3.870434 195047
0.66080076 -41.394474 -3.8917704 195048
0.65928411 -41.804111 -3.9553545 195049
0.65787095 -42.185795 -3.9947619 195050
0.65642995 -42.574989 -4.0359855 195051
0.65499717 -42.96196 -4.0719857 195052
0.65354854 -43.353203 -4.1074018 195053
0.65201122 -43.768421 -4.1558995 195054
0.6504575 -44.188057 -4.2035384 195055
0.64889967 -44.60881 -4.2480054 195056
0.64731318 -45.037296 -4.2937822 195057
0.64582092 -45.440334 -4.3184843 195058
0.64415252 -45.890949 -4.3711624 195059
0.64246726 -46.346111 -4.4226046 195060
0.64077759 -46.802464 -4.470571 195061
0.63905871 -47.266708 -4.519392 195062
0.63734794 -47.728779 -4.5625038 195063
0.88140661 -9.6574574 -0.76253599 195166
0.88212186 -9.7600527 -0.77142894 195167
0.88282943 -9.8615522 -0.77195251 195168
0.88355529 -9.9656658 -0.7878201 195169
0.88428253 -10.069985 -0.80321234 195170
0.88499719 -10.172497 -0.80629241 195171
0.88573176 -10.277858 -0.8246752 195172
0.88644332 -10.37993 -0.82288021 195173
0.88719058 -10.487114 -0.84816986 195174
0.88790894 -10.590161 -0.84937143 195175
0.8886649 -10.698593 -0.87759924 195176
0.8893854 -10.801938 -0.87784243 195177
0.89013952 -10.910112 -0.90114403 195178
0.89085627 -11.012923 -0.8965131 195179
0.8916021 -11.119903 -0.9109897 195180
0.89234352 -11.226257 -0.9210552 195181
0.89308023 -11.331932 -0.92671901 195182
0.89383626 -11.440378 -0.9436065 195183
0.8945753 -11.546389 -0.94828361 195184
0.89534074 -11.656176 -0.96805233 195185
0.8960886 -11.763454 -0.97562242 195186
0.89683771 -11.870902 -0.98269147 195187
0.89760131 -11.980435 -0.99702781 195188
0.89836657 -12.090199 -1.0108387 195189
0.89912641 -12.199199 -1.020255 195190
0.89990884 -12.311423 -1.0407677 195191
0.9007076 -12.425996 -1.0684664 195192
0.90146512 -12.534654 -1.0724375 195193
0.90223104 -12.644524 -1.079753 195194
0.90300578 -12.755654 -1.0904003 195195
0.90372854 -12.859329 -1.073583 195196
0.90454423 -12.97633 -1.102406 195197
0.90534681 -13.091448 -1.1229705 195198
0.90612751 -13.203434 -1.1314741 195199
0.90693396 -13.319111 -1.1509175 195200
0.93592286 -17.477282 -1.595343 195228
0.93685502 -17.610992 -1.6112829 195229
0.93777746 -17.743307 -1.6229085 195230
0.93859142 -17.860071 -1.6015074 195231
0.93957925 -18.001766 -1.6296984 195232
0.94052029 -18.136749 -1.6427954 195233
0.94152677 -18.281116 -1.673002 195234
0.94243485 -18.411369 -1.6739194 195235
0.94344723 -18.556585 -1.7025588 195236
0.94438529 -18.691143 -1.709119 195237
0.9454298 -18.840961 -1.7432362 195238
0.94630694 -18.966785 -1.7306434 195239
0.94729108 -19.107952 -1.7455512 195240
0.94827783 -19.249493 -1.7596775 195241
0.94926715 -19.391397 -1.7730165 195242
0.95031333 -19.541458 -1.799543 195243
0.95133543 -19.688072 -1.8182378 195244
0.95230526 -19.827185 -1.8221985 195245
0.95333266 -19.974562 -1.8392661 195246
0.95434892 -20.120335 -1.8520408 195247
0.95538193 -20.268503 -1.8674444 195248
0.95643187 -20.419107 -1.8854473 195249
0.95748472 -20.570133 -1.9025861 195250
0.95849723 -20.71537 -1.9085926 195251
0.95964283 -20.879684 -1.9445099 195252
0.96064609 -21.023598 -1.9453954 195253
0.9616366 -21.165682 -1.9420804 195254
0.96276248 -21.327173 -1.9684597 195255
0.96389186 -21.489176 -1.993883 195256
0.96497965 -21.645208 -2.0082405 195257
0.96607035 -21.801657 -2.0216916 195258
0.9672249 -21.967264 -2.047627 195259
0.96835232 -22.128986 -2.0658937 195260
0.96939027 -22.277868 -2.0632234 195261
0.97061676 -22.453794 -2.0995522 195262
0.97167534 -22.605644 -2.0983858 195263
0.97283059 -22.771349 -2.1161537 195264
0.97379869 -22.910229 -2.0934453 195265
0.97468781 -23.037779 -2.0535772 195266
0.97554457 -23.160694 -2.0065098 195267
0.98745954 -24.869728 -2.3496017 195270
0.98858857 -25.031687 -2.3412185 195271
0.98995948 -25.228325 -2.3760734 195272
0.99128324 -25.418207 -2.4002326 195273
0.99250704 -25.593754 -2.4043872 195274
0.99333292 -25.712244 -2.3356194 195275
0.99473524 -25.913385 -2.3690121 195276
1.0085224 -27.891031 -2.5528347 195284
1.0086908 -27.915253 -2.3657656 195285
1.013008 -28.534447 -2.6270516 195287
1.0145245 -28.751966 -2.650938 195288
1.0160075 -28.964697 -2.6675119 195289
1.0162414 -28.998297 -2.4892948 195290
1.017879 -29.233202 -2.5272129 195291
1.0205953 -29.622766 -2.7263043 195292
1.0219982 -29.823999 -2.7227409 195293
1.0236746 -30.064472 -2.7582433 195294
1.0251427 -30.275053 -2.7605395 195295
1.0268872 -30.525288 -2.801482 195296
1.0285785 -30.767895 -2.8321671 195297
1.0286802 -30.782541 -2.6316948 195298
1.0476257 -33.500031 -3.0758951 195308
1.0654595 -36.058117 -3.3461189 195317
1.065778 -36.103874 -3.1619542 195318
1.0803982 -38.200947 -3.5313139 195324
1.082767 -38.540726 -3.5730879 195325
1.0998672 -40.993591 -3.8313129 195332
1.1024452 -41.363388 -3.8693938 195333
1.105143 -41.750332 -3.9165187 195334
1.1078027 -42.131866 -3.9560697 195335
1.110447 -42.511162 -3.9904492 195336
1.1132573 -42.914272 -4.038208 195337
1.1160296 -43.311935 -4.0783391 195338
1.1189694 -43.73362 -4.1314931 195339
1.1218027 -44.140007 -4.1701002 195340
1.124643 -44.547436 -4.2056513 195341
1.1275598 -44.965824 -4.2448697 195342
1.1307157 -45.418499 -4.3032126 195343
1.1335549 -45.825768 -4.3271065 195344
1.136657 -46.270737 -4.3721318 195345
1.1398839 -46.733601 -4.4246922 195346
1.1430255 -47.184238 -4.4650316 195347
0.9813838 -9.3438578 -0.75608546 195448
0.98684913 -9.6492939 -0.77358699 195451
0.98867482 -9.7513256 -0.77850741 195452
0.99056894 -9.8571787 -0.80668163 195453
0.99233192 -9.9557085 -0.78697157 195454
0.99422169 -10.061322 -0.81024492 195455
0.99605638 -10.163856 -0.81331193 195456
0.9978928 -10.266486 -0.81591427 195457
0.99973089 -10.369214 -0.81805527 195458
1.0016354 -10.475647 -0.83940381 195459
1.0035975 -10.585301 -0.87597913 195460
1.0054042 -10.686275 -0.86489707 195461
1.0073216 -10.793425 -0.88476372 195462
1.0092293 -10.900039 -0.90020514 195463
1.0110396 -11.001219 -0.88772792 195464
1.012953 -11.108152 -0.90220201 195465
1.0149306 -11.218669 -0.93181688 195466
1.016853 -11.326098 -0.94527423 195467
1.018732 -11.431112 -0.94652009 195468
1.0206928 -11.540698 -0.96677899 195469
1.0225772 -11.646007 -0.96704209 195470
1.024563 -11.75698 -0.99016422 195471
1.0264357 -11.861648 -0.98554879 195472
1.0283958 -11.971186 -0.99986815 195473
1.0303949 -12.082911 -1.0214237 195474
1.0323104 -12.189956 -1.0230689 195475
1.0343366 -12.303196 -1.0474354 195476
1.0363503 -12.415732 -1.0673826 195477
1.0382756 -12.52333 -1.0674814 195478
1.04026 -12.634231 -1.0786483 195479
1.0422096 -12.743191 -1.0815791 195480
1.0441422 -12.851199 -1.0801504 195481
1.0461565 -12.963769 -1.0935866 195482
1.0482965 -13.083358 -1.1295002 195483
1.1289612 -17.591419 -1.5916767 195517
1.1312646 -17.720144 -1.5961277 195518
1.133667 -17.85441 -1.6106762 195519
1.1361394 -17.992579 -1.6316638 195520
1.1385868 -18.129354 -1.6483177 195521
1.140976 -18.262877 -1.6570879 195522
1.1435012 -18.404001 -1.6793802 195523
1.1460669 -18.54739 -1.70444 195524
1.148541 -18.685658 -1.7180648 195525
1.1509209 -18.818663 -1.7203283 195526
1.1534404 -18.959469 -1.7359872 195527
1.1558645 -19.094946 -1.7403101 195528
1.1585338 -19.24412 -1.7684709 195529
1.161108 -19.387987 -1.7852727 195530
1.1636894 -19.532248 -1.8012714 195531
1.1662776 -19.676893 -1.8164593 195532
1.1687665 -19.815989 -1.8204068 195533
1.1712961 -19.957365 -1.8270593 195534
1.1741191 -20.115129 -1.8605983 195535
1.1766984 -20.259275 -1.8690611 195536
1.1792837 -20.403759 -1.8767173 195537
1.1819853 -20.554735 -1.8938605 195538
1.1847312 -20.708199 -1.9135621 195539
1.1874851 -20.862103 -1.9323744 195540
1.1901342 -21.010151 -1.9400836 195541
1.1929407 -21.166996 -1.9605346 195542
1.1956792 -21.320042 -1.9732975 195543
1.1983864 -21.471338 -1.9818002 195544
1.2011772 -21.62731 -1.9961714 195545
1.2040144 -21.785868 -2.0129948 195546
1.2068202 -21.942675 -2.0255377 195547
1.2097909 -22.108694 -2.0505247 195548
1.2128501 -22.279659 -2.081176 195549
1.2157198 -22.440039 -2.0941894 195550
1.2185969 -22.600834 -2.1062608 195551
1.2208749 -22.728144 -2.0678759 195552
1.2244954 -22.930477 -2.1374249 195553
1.2263304 -23.033037 -2.0613198 195554
1.2292306 -23.195118 -2.0698099 195555
1.2595054 -24.887049 -2.385458 195559
1.2620561 -25.029606 -2.3515975 195560
1.2654873 -25.221361 -2.3800757 195561
1.268885 -25.411247 -2.4041953 195562
1.2719373 -25.581829 -2.4020441 195563
1.2744145 -25.720282 -2.3582542 195564
1.2777005 -25.903927 -2.3697517 195565
1.3132274 -27.889389 -2.5622723 195572
1.3137561 -27.918961 -2.3811333 195573
1.3205259 -28.297276 -2.5901988 195574
1.3325067 -28.966862 -2.4661162 195578
1.3373932 -29.239944 -2.5449493 195579
1.355691 -30.262529 -2.7577486 195583
1.360218 -30.51553 -2.8015227 195584
1.3634522 -30.696283 -2.7695744 195585
1.3639109 -30.721943 -2.5806928 195586
1.4587704 -36.023289 -3.1019266 195606
1.5400584 -40.566158 -3.7531381 195619
1.5472286 -40.966873 -3.8179591 195620
1.5537287 -41.330135 -3.8513188 195621
1.5605927 -41.713737 -3.8961349 195622
1.5671854 -42.082184 -3.9263759 195623
1.5739695 -42.461323 -3.9608774 195624
1.5811796 -42.864269 -4.0087538 195625
1.5882924 -43.261772 -4.0490041 195626
1.5955411 -43.666882 -4.0908451 195627
1.6025734 -44.059887 -4.1205578 195628
1.6100956 -44.480278 -4.1653876 195629
1.6176375 -44.901768 -4.207037 195630
1.6251988 -45.324345 -4.2455029 195631
1.6328984 -45.75465 -4.2852006 195632
1.6407968 -46.196056 -4.3282313 195633
1.1076139 -10.047815 -0.7974807 195753
1.1106232 -10.150941 -0.80448711 195754
1.1137168 -10.256951 -0.82678813 195755
1.1168387 -10.363935 -0.85253328 195756
1.1198007 -10.46544 -0.84630197 195757
1.1229146 -10.572144 -0.86713815 195758
1.1258813 -10.673813 -0.85997766 195759
1.128939 -10.778596 -0.86806279 195760
1.1320243 -10.884324 -0.87958729 195761
1.1352565 -10.995088 -0.91412765 195762
1.1381389 -11.093863 -0.8894248 195763
1.1414108 -11.205986 -0.92686206 195764
1.1445445 -11.313372 -0.94031113 195765
1.1477098 -11.421844 -0.9571597 195766
1.1508042 -11.527883 -0.96180117 195767
1.1539024 -11.634056 -0.96595192 195768
1.1570588 -11.742221 -0.97739178 195769
1.1602486 -11.851531 -0.99220896 195770
1.1635014 -11.962997 -1.0142745 195771
1.1666771 -12.071827 -1.0241668 195772
1.1698586 -12.180851 -1.0335443 195773
1.1731639 -12.294115 -1.0578867 195774
1.1763583 -12.403588 -1.0662129 195775
1.1794974 -12.511156 -1.0663007 195776
1.1827018 -12.620968 -1.0735996 195777
1.1860059 -12.734198 -1.0919313 195778
1.1892864 -12.846612 -1.1058636 195779
1.192444 -12.95482 -1.1038852 195780
1.3314142 -17.717127 -1.6159987 195818
1.3350768 -17.84264 -1.6125345 195819
1.3391081 -17.980789 -1.6335003 195820
1.3427846 -18.106781 -1.6286831 195821
1.3469418 -18.249239 -1.6553148 195822
1.3508993 -18.384857 -1.6669154 195823
1.35492 -18.52264 -1.6813316 195824
1.3590593 -18.66449 -1.702077 195825
1.3631563 -18.804886 -1.7184978 195826
1.3672642 -18.945656 -1.7341421 195827
1.3720492 -19.109629 -1.7912251 195828
1.3754567 -19.2264 -1.7595762 195829
1.3795965 -19.368269 -1.77288 195830
1.3841449 -19.524132 -1.8098449 195831
1.3879651 -19.655046 -1.8006008 195832
1.392483 -19.80987 -1.8323768 195833
1.3964348 -19.945292 -1.8285781 195834
1.4009792 -20.101023 -1.8586339 195835
1.4052435 -20.247156 -1.8705318 195836
1.4094591 -20.391615 -1.8781637 195837
1.4138641 -20.542568 -1.8952819 195838
1.418402 -20.698076 -1.9183824 195839
1.4224064 -20.835304 -1.9098516 195840
1.4271517 -20.997913 -1.9414321 195841
1.4317895 -21.156849 -1.9652535 195842
1.4363174 -21.312012 -1.9813659 195843
1.4406074 -21.459028 -1.9830729 195844
1.4450952 -21.612816 -1.9940509 195845
1.4496576 -21.769161 -2.0074997 195846
1.4544871 -21.934662 -2.0334303 195847
1.4593318 -22.100681 -2.0583715 195848
1.4638034 -22.253922 -2.0623403 195849
1.4684802 -22.414186 -2.0753863 195850
1.4731691 -22.574867 -2.0874887 195851
1.4776062 -22.726923 -2.0854423 195852
1.48245 -22.892912 -2.1022666 195853
1.4862387 -23.022751 -2.0656135 195854
1.4908338 -23.180216 -2.0675275 195855
1.544282 -25.011803 -2.345958 195861
1.5497324 -25.198582 -2.3681154 195862
1.5552709 -25.38838 -2.392251 195863
1.5600287 -25.551424 -2.3807073 195864
1.5639923 -25.687254 -2.3338463 195865
1.5704465 -25.908426 -2.3920889 195866
1.6226639 -27.697844 -2.5752196 195872
1.6281695 -27.886515 -2.574506 195873
1.6289556 -27.913465 -2.3903153 195874
1.6399949 -28.291754 -2.5992959 195875
1.7117214 -30.749722 -2.8376486 195886
1.7115718 -30.744612 -2.6172941 195887
1.2086595 -9.9390469 -0.82385814 196081
1.2126168 -10.038886 -0.81155783 196082
1.2167057 -10.142044 -0.81853366 196083
1.2207726 -10.244647 -0.82110262 196084
1.2248713 -10.348051 -0.82714438 196085
1.2292044 -10.457367 -0.86418617 196086
1.2332306 -10.558943 -0.85746807 196087
1.2374978 -10.666596 -0.88171738 196088
1.241531 -10.768349 -0.874066 196089
1.2457218 -10.874077 -0.88556528 196090
1.2500802 -10.984032 -0.91615897 196091
1.2539943 -11.082783 -0.8914324 196092
1.2584715 -11.195733 -0.93275416 196093
1.2626598 -11.301397 -0.93836379 196094
1.266958 -11.409835 -0.95519173 196095
1.2710533 -11.513154 -0.94811589 196096
1.2752583 -11.619239 -0.95225853 196097
1.2796893 -11.731028 -0.97925347 196098
1.2838341 -11.835596 -0.97461319 196099
1.2883245 -11.94888 -1.0044388 196100
1.2925967 -12.056662 -1.0104396 196101
1.2970331 -12.168583 -1.0314319 196102
1.3012804 -12.275738 -1.0325351 196103
1.3058589 -12.391246 -1.0640582 196104
1.3101625 -12.499823 -1.0679871 196105
1.3144301 -12.607487 -1.067549 196106
1.532341 -18.105057 -1.6504641 196151
1.5373446 -18.231291 -1.6449156 196152
1.5431511 -18.377779 -1.6778575 196153
1.5483212 -18.508217 -1.678013 196154
1.5540892 -18.653732 -1.7058153 196155
1.559431 -18.788496 -1.7115908 196156
1.5651579 -18.932978 -1.7342682 196157
1.5703743 -19.064581 -1.7315097 196158
1.5762073 -19.211739 -1.7561238 196159
1.5820585 -19.359356 -1.7799028 196160
1.5874643 -19.495737 -1.7818879 196161
1.5931141 -19.638275 -1.7935838 196162
1.5994054 -19.796991 -1.8322875 196163
1.6046927 -19.930384 -1.8249888 196164
1.6104654 -20.076021 -1.8377239 196165
1.6164935 -20.2281 -1.8599855 196166
1.6225396 -20.380634 -1.8813699 196167
1.628278 -20.525408 -1.8881482 196168
1.6341933 -20.674643 -1.9009597 196169
1.6402891 -20.828426 -1.9197457 196170
1.6462357 -20.978453 -1.9308327 196171
1.6519458 -21.122513 -1.9308769 196172
1.6584263 -21.286003 -1.9605889 196173
1.6646733 -21.443605 -1.9791957 196174
1.6705104 -21.59087 -1.9800435 196175
1.6768758 -21.751459 -2.0002055 196176
1.6834332 -21.916891 -2.0261166 196177
1.6894003 -22.067434 -2.0276632 196178
1.6960825 -22.236013 -2.0549827 196179
1.7024322 -22.396208 -2.0680096 196180
1.7088875 -22.559065 -2.0833993 196181
1.7147332 -22.706547 -2.0747268 196182
1.7214895 -22.876999 -2.0981166 196183
1.7326906 -23.159586 -2.0567827 196184
1.8127527 -25.179434 -2.3603711 196192
1.8206645 -25.379036 -2.3970582 196193
1.8277171 -25.556961 -2.4042575 196194
1.8324106 -25.675373 -2.3354118 196195
1.839384 -25.851305 -2.3375723 196196
1.9121939 -27.688189 -2.5791903 196200
1.9188325 -27.855675 -2.5544083 196201
1.9185268 -27.847973 -2.3314302 196202
1.9443239 -28.498783 -2.6282332 196204
1.9527282 -28.71081 -2.6460874 196205
1.9599739 -28.893612 -2.6302016 196206
1.9608655 -28.916115 -2.440362 196207
1.995523 -29.790462 -2.7260323 196210
2.0041714 -30.008648 -2.7383301 196211
2.0127313 -30.224606 -2.7463212 196212
2.0227535 -30.477448 -2.7900331 196213
2.0325859 -30.725504 -2.8263154 196214
2.0311496 -30.689285 -2.5748286 196215
1.3304255 -10.128661 -0.82178551 196416
1.3357139 -10.232605 -0.83222377 196417
1.3410466 -10.33742 -0.84612221 196418
1.3461685 -10.438095 -0.83593506 196419
1.3517418 -10.547639 -0.8724699 196420
1.3570656 -10.65228 -0.88098747 196421
1.3621216 -10.751657 -0.86155623 196422
1.3677771 -10.86282 -0.90050024 196423
1.3732076 -10.969557 -0.91540498 196424
1.378733 -11.078161 -0.93763608 196425
1.3840586 -11.182837 -0.93980318 196426
1.3893898 -11.287622 -0.94149131 196427
1.3949049 -11.396024 -0.95830852 196428
1.4001595 -11.499307 -0.95121992 196429
1.4058329 -11.610819 -0.978719 196430
1.4113349 -11.718961 -0.99011511 196431
1.416847 -11.827304 -1.0010003 196432
1.4226139 -11.940653 -1.0307882 196433
1.4278517 -12.043607 -1.0173613 196434
1.4335449 -12.155506 -1.0383352 196435
1.4392015 -12.266688 -1.0549002 196436
1.444714 -12.37504 -1.0593332 196437
1.4839795 -13.146818 -1.1066834 196443
1.7631276 -18.633572 -1.7009366 196484
1.7698843 -18.766378 -1.7031763 196485
1.7771341 -18.908875 -1.7223327 196486
1.784501 -19.053673 -1.7442111 196487
1.7911096 -19.183569 -1.7371967 196488
1.7986124 -19.331036 -1.7610092 196489
1.8062371 -19.480904 -1.7874712 196490
1.8134868 -19.6234 -1.7991391 196491
1.8210564 -19.772182 -1.820439 196492
1.8284454 -19.917416 -1.833955 196493
1.8353428 -20.052986 -1.8293628 196494
1.8433836 -20.211029 -1.8619785 196495
1.850415 -20.349236 -1.8592602 196496
1.8586078 -20.510269 -1.89353 196497
1.8663034 -20.66153 -1.9097354 196498
1.8740199 -20.813198 -1.9250691 196499
1.8820773 -20.971569 -1.9497428 196500
1.8896223 -21.119869 -1.956512 196501
1.8970762 -21.26638 -1.9590516 196502
1.9051996 -21.426046 -1.981023 196503
1.9132373 -21.584032 -1.9986844 196504
1.9216292 -21.748976 -2.0254934 196505
1.929269 -21.899139 -2.0278773 196506
1.9377086 -22.065022 -2.0527742 196507
1.94516 -22.211483 -2.0467169 196508
1.9537584 -22.380487 -2.0730247 196509
1.9622698 -22.547781 -2.0950036 196510
1.9700019 -22.69976 -2.0928781 196511
1.9782116 -22.861124 -2.1030388 196512
1.9831833 -22.958849 -2.0204163 196513
1.9921157 -23.134417 -2.0485637 196514
2.0860651 -24.981022 -2.3490834 196522
2.095562 -25.167686 -2.37116 196523
2.1052125 -25.357367 -2.3952098 196524
2.1141338 -25.532722 -2.3992617 196525
2.1200271 -25.648558 -2.3272943 196526
2.1290996 -25.826885 -2.3325758 196527
2.2339764 -27.888269 -2.6153595 196531
2.2433274 -28.072067 -2.6072493 196532
2.2536464 -28.274895 -2.6188347 196533
2.3074343 -29.332117 -2.6949883 196538
2.3177733 -29.535334 -2.6956081 196539
2.3289771 -29.755547 -2.7122757 196540
2.3397875 -29.968031 -2.7188449 196541
2.3520398 -30.208855 -2.7527077 196542
2.3644726 -30.453222 -2.7877967 196543
2.3765149 -30.68992 -2.8126795 196544
2.3752432 -30.664936 -2.5725763 196545
1.461658 -10.427283 -0.85843748 196762
1.4681264 -10.531686 -0.86742574 196763
1.47437 -10.63246 -0.85629731 196764
1.4811404 -10.741736 -0.88788652 196765
1.4875407 -10.84504 -0.88759017 196766
1.4942467 -10.953278 -0.9103241 196767
1.5007658 -11.058498 -0.91689456 196768
1.5073985 -11.165551 -0.93079633 196769
1.5141507 -11.274536 -0.95201039 196770
1.5204315 -11.375911 -0.93758315 196771
1.5274302 -11.48887 -0.97338784 196772
1.5340029 -11.594955 -0.97748089 196773
1.5406989 -11.703032 -0.98886436 196774
1.5475243 -11.813197 -1.0075105 196775
1.5543664 -11.923629 -1.0256302 196776
1.5610428 -12.03139 -1.0315834 196777
1.5677909 -12.140306 -1.0409087 196778
1.5745507 -12.249413 -1.0497164 196779
1.5814499 -12.360767 -1.0657374 196780
1.5884943 -12.474466 -1.0889401 196781
1.5949659 -12.578921 -1.0768852 196782
1.6366187 -13.251213 -1.1438005 196787
1.9604068 -18.47727 -1.6888421 196827
1.9693016 -18.620836 -1.7130445 196828
1.9778763 -18.759235 -1.7258366 196829
1.9858882 -18.888552 -1.7202386 196830
1.9952074 -19.038967 -1.7526534 196831
2.0031343 -19.16691 -1.7420895 196832
2.0126262 -19.320112 -1.7763671 196833
2.0213077 -19.460234 -1.7853098 196834
2.0301306 -19.60264 -1.7969612 196835
2.0388532 -19.743423 -1.8043418 196836
2.0487063 -19.902456 -1.8421428 196837
2.0568545 -20.033972 -1.8305929 196838
2.0662653 -20.185867 -1.8528327 196839
2.075326 -20.332109 -1.8638778 196840
2.0846629 -20.482813 -1.8809562 196841
2.0940261 -20.633936 -1.8971698 196842
2.1032856 -20.783386 -1.9091004 196843
2.1133478 -20.945795 -1.9405999 196844
2.1223974 -21.091862 -1.9439731 196845
2.1321251 -21.248869 -1.9634517 196846
2.1417482 -21.404186 -1.9786335 196847
2.1505954 -21.546986 -1.9727095 196848
2.1610711 -21.716066 -2.0062795 196849
2.1710413 -21.876989 -2.0254323 196850
2.1813126 -22.042772 -2.0503099 196851
2.1905184 -22.191357 -2.047564 196852
2.2013981 -22.366959 -2.0837986 196853
2.2107873 -22.518507 -2.0825551 196854
2.2193558 -22.656805 -2.0606456 196855
2.2313097 -22.849743 -2.1169276 196856
2.2475271 -23.111502 -2.0459738 196857
2.3620183 -24.959431 -2.3494439 196863
2.3737295 -25.148451 -2.3746421 196864
2.3840997 -25.315834 -2.3703508 196865
2.3958738 -25.505871 -2.3932564 196866
2.4108214 -25.747135 -2.2612147 196867
2.5433528 -27.886236 -2.6392031 196870
2.5535889 -28.051453 -2.6100552 196871
2.5661492 -28.254179 -2.6215928 196872
2.5901005 -28.640772 -2.404283 196875
2.6316185 -29.310879 -2.697506 196877
2.6445432 -29.519487 -2.7038875 196878
2.6583521 -29.742371 -2.7233737 196879
2.6718559 -29.960325 -2.7356176 196880
2.6848767 -30.170485 -2.7378156 196881
2.6996582 -30.409063 -2.7672079 196882
2.7146575 -30.651159 -2.797828 196883
2.7145026 -30.648668 -2.5804293 196884
1.5343722 -9.8954325 -0.82550919 197096
1.5718226 -10.411448 -0.85782051 197101
1.5793945 -10.515778 -0.86680186 197102
1.5869228 -10.619507 -0.87137705 197103
1.594516 -10.724133 -0.87940228 197104
1.6021779 -10.829701 -0.89086437 197105
1.6100291 -10.937881 -0.91359049 197106
1.6175416 -11.041394 -0.91232097 197107
1.6248765 -11.14246 -0.89885199 197108
1.6332073 -11.257246 -0.94743001 197109
1.6408761 -11.36291 -0.95251298 197110
1.6481012 -11.462465 -0.92981583 197111
1.65631 -11.575569 -0.96510303 197112
1.6642118 -11.684445 -0.98038214 197113
1.6718565 -11.78978 -0.97959745 197114
1.6795781 -11.896173 -0.98220915 197115
1.7098097 -12.312726 -0.94904613 197119
1.7196878 -12.448831 -1.0573056 197120
1.7278702 -12.561572 -1.0761267 197121
1.7356032 -12.668124 -1.0712913 197122
1.7599829 -13.004044 -1.1075264 197125
2.1656563 -18.593672 -1.7012603 197168
2.1752834 -18.72632 -1.7034669 197169
2.184792 -18.857338 -1.7014366 197170
2.1958332 -19.00947 -1.7373991 197171
2.2059417 -19.14875 -1.747916 197172
2.2162144 -19.290295 -1.761163 197173
2.2270782 -19.439983 -1.7875924 197174
2.2376921 -19.586227 -1.8061923 197175
2.2476189 -19.723005 -1.8065875 197176
2.2585757 -19.873978 -1.8305026 197177
2.2701488 -20.033436 -1.8673754 197178
2.2801504 -20.171246 -1.8653687 197179
2.2910562 -20.321514 -1.8832476 197180
2.3018439 -20.470154 -1.8968325 197181
2.3125095 -20.617111 -1.9061469 197182
2.3241067 -20.776905 -1.9351056 197183
2.3349817 -20.926746 -1.9460975 197184
2.3452709 -21.068518 -1.9426546 197185
2.356812 -21.227539 -1.965508 197186
2.367301 -21.372063 -1.9637903 197187
2.3790605 -21.534092 -1.988194 197188
2.390384 -21.690115 -2.0015631 197189
2.4026878 -21.859644 -2.0341051 197190
2.4134378 -22.007769 -2.0322382 197191
2.4246905 -22.162813 -2.0395162 197192
2.4366157 -22.327127 -2.0591662 197193
2.4479246 -22.482948 -2.0645969 197194
2.4586041 -22.630098 -2.0559237 197195
2.4729259 -22.827431 -2.1187823 197196
2.4790189 -22.911388 -2.0164073 197197
2.4917443 -23.086729 -2.0445225 197198
2.6261203 -24.938242 -2.3542006 197204
2.6384068 -25.107534 -2.3541262 197205
2.6505401 -25.274715 -2.3498905 197206
2.6652167 -25.476938 -2.3885159 197207
2.6801636 -25.682892 -2.2129195 197208
2.837266 -27.847544 -2.6254399 197214
2.8496294 -28.017897 -2.6023042 197215
2.8476887 -27.991165 -2.3579502 197216
2.8623462 -28.193123 -2.3691964 197217
2.8937342 -28.625612 -2.4171679 197219
2.940958 -29.276283 -2.6898127 197221
2.9570804 -29.498428 -2.7107255 197222
2.972048 -29.704662 -2.7128072 197223
3.0220132 -30.393116 -2.7795587 197226
3.0393722 -30.632298 -2.8072553 197227
3.0412385 -30.65802 -2.6181252 197228
1.6836467 -10.292377 -0.86699128 197444
1.7096182 -10.600798 -0.87028873 197447
1.7183554 -10.704555 -0.87437856 197448
1.7272359 -10.810013 -0.88583362 197449
1.736268 -10.917272 -0.9046303 197450
1.7454602 -11.02643 -0.93075168 197451
1.75397 -11.127488 -0.91725141 197452
1.7630564 -11.235391 -0.93455261 197453
1.7720158 -11.341786 -0.94353485 197454
1.7813656 -11.452818 -0.97151583 197455
1.790208 -11.557823 -0.97169471 197456
1.7988248 -11.660151 -0.95972067 197457
1.8081564 -11.770967 -0.98226207 197458
1.8174324 -11.881122 -1.0003865 197459
1.8819748 -12.647581 -1.0699703 197465
1.8915912 -12.761778 -1.0915518 197466
1.9002039 -12.864058 -1.0703135 197467
2.3921423 -18.705963 -1.7120594 197513
2.4039617 -18.846321 -1.7276152 197514
2.4156528 -18.985155 -1.7388753 197515
2.427372 -19.124327 -1.749367 197516
2.4389572 -19.261904 -1.7555912 197517
2.4512222 -19.407555 -1.7750254 197518
2.4626975 -19.543827 -1.7762172 197519
2.4761899 -19.704052 -1.8183647 197520
2.4883943 -19.848982 -1.831829 197521
2.5006299 -19.994284 -1.8444738 197522
2.5139172 -20.152075 -1.8769913 197523
2.5255368 -20.29006 -1.8741779 197524
2.5382123 -20.440586 -1.8911947 197525
2.550575 -20.587397 -1.9005017 197526
2.5627923 -20.732481 -1.905562 197527
2.5752125 -20.879974 -1.913208 197528
2.5890822 -21.044682 -1.9471688 197529
2.6004968 -21.180231 -1.9327501 197530
2.6139052 -21.33946 -1.9547293 197531
2.6284411 -21.512079 -1.9959667 197532
2.6413889 -21.665838 -2.0059304 197533
2.6536334 -21.811245 -2.0016139 197534
2.6675642 -21.976677 -2.0265186 197535
2.6813521 -22.140411 -2.0470998 197536
2.6963043 -22.317974 -2.0866137 197537
2.708482 -22.462587 -2.0753961 197538
2.7199175 -22.598389 -2.0501735 197539
2.7357547 -22.786459 -2.0998638 197540
2.7466562 -22.915916 -2.063107 197541
2.7587178 -23.059155 -2.0452869 197542
2.9128628 -24.889668 -2.3293297 197548
2.9289553 -25.08077 -2.3577042 197549
2.9446831 -25.267542 -2.3785758 197550
2.9602475 -25.452375 -2.395138 197551
2.9703991 -25.572929 -2.3293695 197552
3.1572912 -27.792322 -2.5984089 197560
3.1729536 -27.978321 -2.593266 197561
3.2233884 -28.577255 -2.3993359 197565
3.2783527 -29.229967 -2.6749415 197567
3.2968075 -29.449121 -2.6929724 197568
3.3150806 -29.666119 -2.7066603 197569
3.3711188 -30.331591 -2.7505217 197572
3.392885 -30.590071 -2.7982068 197573
3.4002614 -30.67767 -2.6713874 197574
1.8535858 -10.895679 -0.89233673 197795
1.8641839 -11.007154 -0.93020105 197796
1.8737822 -11.108113 -0.91669518 197797
1.8840307 -11.215913 -0.93399042 197798
1.8943024 -11.323956 -0.95077205 197799
1.9044274 -11.430457 -0.95924598 197800
1.9145685 -11.537127 -0.96722144 197801
1.924814 -11.644894 -0.97858703 197802
1.9353473 -11.755688 -1.0011028 197803
1.9455441 -11.862944 -1.0075527 197804
1.9563133 -11.976219 -1.0367664 197805
1.9663613 -12.08191 -1.0344347 197806
1.9760338 -12.183651 -1.0161378 197807
2.6195555 -18.952551 -1.7273347 197856
2.6338601 -19.103014 -1.7588966 197857
2.6469309 -19.240501 -1.7650868 197858
2.6603999 -19.382175 -1.7775047 197859
2.6740887 -19.526161 -1.7926142 197860
2.6876264 -19.668556 -1.8034369 197861
2.7011969 -19.811298 -1.8134626 197862
2.7146094 -19.952381 -1.8192281 197863
2.72997 -20.113951 -1.8586957 197864
2.7438416 -20.259861 -1.8696778 197865
2.7577479 -20.406132 -1.8798335 197866
2.7718835 -20.554819 -1.8925812 197867
2.7864504 -20.708042 -1.9113014 197868
2.8006611 -20.857515 -1.9223244 197869
2.8147066 -21.005255 -1.9290962 197870
2.8291876 -21.157574 -1.9417934 197871
2.8443151 -21.316692 -1.963737 197872
2.8592832 -21.474134 -1.9813716 197873
2.8744991 -21.634184 -2.0014374 197874
2.8895519 -21.792517 -2.0172074 197875
2.9050627 -21.955669 -2.0387158 197876
2.9187293 -22.099421 -2.0292978 197877
2.9362218 -22.283415 -2.078804 197878
2.9495282 -22.423382 -2.0609808 197879
2.9639201 -22.57476 -2.058883 197880
2.9811404 -22.755894 -2.0986652 197881
2.9914842 -22.864697 -2.0323927 197882
3.0063856 -23.021439 -2.0342689 197883
3.1822903 -24.871695 -2.3470061 197890
3.1976554 -25.033312 -2.3374515 197891
3.2165575 -25.232134 -2.3740962 197892
3.2324636 -25.399445 -2.3687294 197893
3.4475715 -27.662066 -2.488992 197902
3.4533575 -27.722927 -2.3438792 197903
3.5329397 -28.560017 -2.4183989 197907
3.5933969 -29.195934 -2.6763024 197909
3.6147342 -29.42037 -2.7001195 197910
3.6112869 -29.384115 -2.4476831 197911
3.720722 -30.535208 -2.77952 197915
3.7226155 -30.555126 -2.5848215 197916
1.9923022 -11.088021 -0.91492361 198137
2.0037918 -11.196566 -0.93610519 198138
2.0145702 -11.298389 -0.92555124 198139
2.0264816 -11.410918 -0.96131563 198140
2.0376666 -11.516583 -0.96537453 198141
2.0486701 -11.620534 -0.96116012 198142
2.060678 -11.733974 -0.99533004 198143
2.0717127 -11.838221 -0.9901216 198144
2.0834773 -11.949362 -1.0115771 198145
2.0949574 -12.057817 -1.0208728 198146
2.1068854 -12.170501 -1.0451303 198147
2.1188476 -12.283508 -1.0688329 198148
2.1300702 -12.389531 -1.0649621 198149
2.1406286 -12.489278 -1.0374651 198150
2.8213792 -18.920401 -1.7171518 198200
2.8372862 -19.070677 -1.7487037 198201
2.8518212 -19.207991 -1.7548867 198202
2.8670039 -19.351425 -1.7707893 198203
2.8824346 -19.4972 -1.7893647 198204
2.8983262 -19.647327 -1.8140602 198205
2.9130058 -19.786009 -1.8170937 198206
2.9277151 -19.924969 -1.8193619 198207
2.9437344 -20.076305 -1.841549 198208
2.9593718 -20.224033 -1.8559825 198209
2.9748335 -20.370102 -1.8661398 198210
2.9909875 -20.522711 -1.8857286 198211
3.0063093 -20.667456 -1.8907837 198212
3.0227706 -20.822969 -1.9120344 198213
3.0397265 -20.98315 -1.9391611 198214
3.0544925 -21.12265 -1.9314884 198215
3.0722187 -21.29011 -1.966924 198216
3.0890975 -21.449566 -1.9878776 198217
3.1048806 -21.598671 -1.991105 198218
3.1211586 -21.752451 -2.0001702 198219
3.1388688 -21.91976 -2.0283654 198220
3.1559348 -22.080986 -2.0455616 198221
3.1721079 -22.233774 -2.048528 198222
3.1897357 -22.400305 -2.0704558 198223
3.2057483 -22.551579 -2.068289 198224
3.22299 -22.714464 -2.0816939 198225
3.2347288 -22.825363 -2.0187211 198226
3.2529969 -22.997944 -2.0434778 198227
3.4487066 -24.846832 -2.3554764 198235
3.4676142 -25.025452 -2.367929 198236
3.4870915 -25.209457 -2.3855608 198237
3.5029569 -25.359341 -2.3581855 198238
3.5349913 -25.661974 -2.3039837 198239
3.7524865 -27.716673 -2.5892396 198248
3.7494426 -27.687923 -2.3421772 198249
3.7903271 -28.074163 -2.3480074 198251
3.83939 -28.537666 -2.4311979 198253
3.9054999 -29.16221 -2.6771884 198255
3.9277866 -29.372753 -2.6864219 198256
3.9501278 -29.583815 -2.6942747 198257
4.0462422 -30.491817 -2.7714937 198261
4.0730362 -30.744942 -2.811748 198262
2.0970931 -10.856444 -0.90914005 198483
2.1218529 -11.066872 -0.92558539 198485
2.1342108 -11.171899 -0.93112022 198486
2.1596057 -11.387723 -0.96411085 198488
2.1720247 -11.493269 -0.96815389 198489
2.1846771 -11.600799 -0.97948426 198490
2.1970208 -11.705704 -0.97864962 198491
2.2100525 -11.816457 -1.000618 198492
2.2228892 -11.925553 -1.0142951 198493
2.2352858 -12.03091 -1.0119556 198494
2.2482865 -12.141398 -1.0284702 198495
2.2611964 -12.251117 -1.0405875 198496
2.2733963 -12.354799 -1.0290161 198497
2.2873425 -12.473325 -1.0709463 198498
2.299953 -12.5805 -1.0699122 198499
3.093065 -19.320955 -1.7758272 198550
3.110429 -19.468527 -1.7978541 198551
3.1434443 -19.749115 -1.8116385 198553
3.160713 -19.895876 -1.8277279 198554
3.1780281 -20.043034 -1.8429763 198555
3.1949122 -20.186527 -1.8505068 198556
3.212316 -20.334436 -1.8640877 198557
3.2309761 -20.493025 -1.8939248 198558
3.2477465 -20.635551 -1.8955235 198559
3.2660248 -20.790895 -1.9167408 198560
3.2843571 -20.946695 -1.9370441 198561
3.3019953 -21.0966 -1.9462792 198562
3.3196757 -21.246861 -1.9546493 198563
3.3386614 -21.408215 -1.9789802 198564
3.356688 -21.561419 -1.9889228 198565
3.3765512 -21.73023 -2.0213983 198566
3.3936467 -21.875523 -2.0161376 198567
3.4128473 -22.0387 -2.036675 198568
3.4321039 -22.202358 -2.0562305 198569
3.4511528 -22.36425 -2.0714974 198570
3.4691954 -22.51759 -2.0726039 198571
3.4910016 -22.702915 -2.1188517 198572
3.5197711 -22.94742 -2.0248058 198573
3.7810006 -25.167542 -2.3829958 198582
3.7977409 -25.309814 -2.3462076 198583
3.8144863 -25.452129 -2.3086319 198584
3.826827 -25.557013 -2.2236133 198585
4.0740814 -27.65836 -2.5714202 198595
4.0688257 -27.613699 -2.3065042 198596
4.1166921 -28.020502 -2.3362501 198598
4.1714683 -28.486031 -2.4224019 198600
4.2438965 -29.101576 -2.6596282 198602
4.2695947 -29.319981 -2.6776099 198603
4.2953629 -29.538977 -2.6941383 198604
4.3052998 -29.62343 -2.5681252 198605
4.3902311 -30.34524 -2.6688752 198608
4.4182744 -30.583574 -2.6953826 198609
4.4583416 -30.924091 -2.8217089 198610
4.4882631 -31.178389 -2.8585341 198611
4.5166044 -31.419254 -2.8796265 198612
4.5443511 -31.655064 -2.8935134 198613
4.5758796 -31.923018 -2.9362447 198614
4.606154 -32.180309 -2.9660709 198615
4.6371956 -32.444126 -2.9995916 198616
4.6662798 -32.691307 -3.0148866 198617
4.6968107 -32.950779 -3.0393517 198618
4.7270808 -33.208035 -3.0593016 198619
4.7570853 -33.463039 -3.0747752 198620
4.7878604 -33.724586 -3.0938373 198621
4.8197608 -33.995701 -3.1190701 198622
4.8527985 -34.276482 -3.1503556 198623
4.8845253 -34.546116 -3.1690886 198624
4.9173908 -34.825436 -3.1938059 198625
4.9521146 -35.120541 -3.2296078 198626
4.9876494 -35.422543 -3.2684937 198627
5.0225749 -35.719368 -3.30003 198628
5.0547352 -35.992687 -3.3088472 198629
5.0743985 -36.159801 -3.2261469 198630
5.0900788 -36.293072 -3.1144474 198631
5.2242823 -37.433628 -3.3765957 198634
5.2704253 -37.825787 -3.465714 198635
5.2763715 -37.876324 -3.2792289 198636
2.268518 -11.255353 -0.94271475 198834
2.2825081 -11.364117 -0.96284324 198835
2.2957163 -11.466802 -0.95519304 198836
2.3099983 -11.577835 -0.98208284 198837
2.3235972 -11.683559 -0.985116 198838
2.3373361 -11.790369 -0.99153483 198839
2.3518476 -11.903188 -1.0207174 198840
2.3656406 -12.010419 -1.0261012 198841
2.3791943 -12.11579 -1.0232425 198842
2.3938136 -12.229446 -1.0508066 198843
2.4074066 -12.335123 -1.0469291 198844
2.4219627 -12.448289 -1.0695463 198845
3.3946147 -20.010042 -1.8441007 198896
3.4133103 -20.155388 -1.8550433 198897
3.4317892 -20.299049 -1.8617287 198898
3.4508388 -20.447147 -1.874441 198899
3.4702036 -20.597698 -1.8897175 198900
3.4909618 -20.759079 -1.9211323 198901
3.5090883 -20.900002 -1.9176444 198902
3.5302393 -21.064438 -1.9505954 198903
3.5487235 -21.208141 -1.948804 198904
3.5700006 -21.373556 -1.9798551 198905
3.5913494 -21.539528 -2.0099053 198906
3.6099727 -21.684313 -2.0054858 198907
3.6305988 -21.844667 -2.0236013 198908
3.6509995 -22.003271 -2.0374334 198909
3.6717393 -22.164509 -2.0536435 198910
3.6939707 -22.337345 -2.0854285 198911
3.712522 -22.481569 -2.0732753 198912
3.7342963 -22.65085 -2.0964761 198913
3.751457 -22.784264 -2.066196 198914
3.7706842 -22.933744 -2.0580759 198915
4.0513802 -25.115976 -2.3674777 198924
4.0740924 -25.292551 -2.3745608 198925
4.0885601 -25.405027 -2.2994053 198926
4.1139026 -25.602051 -2.3294666 198927
4.3766637 -27.64485 -2.6041374 198931
4.3723001 -27.610931 -2.3510284 198932
4.4225531 -28.001616 -2.3625782 198934
4.5688539 -29.139013 -2.5319052 198939
4.7059083 -30.204525 -2.5714993 198944
4.7928424 -30.880377 -2.8236916 198946
4.8226018 -31.111738 -2.8380187 198947
4.8579173 -31.386295 -2.8926709 198948
4.8882184 -31.621866 -2.9064531 198949
4.9178596 -31.852308 -2.9130979 198950
4.9194522 -31.864693 -2.708802 198951
4.9487429 -32.092411 -2.7105489 198952
5.4069433 -35.654625 -3.2880347 198964
5.4432211 -35.936661 -3.3045778 198965
5.4811583 -36.231598 -3.329355 198966
5.5191951 -36.527309 -3.3520136 198967
5.5608854 -36.851425 -3.3953443 198968
5.5983372 -37.142593 -3.4085901 198969
5.6398568 -37.465382 -3.4448066 198970
5.6798954 -37.776653 -3.4686968 198971
5.6851859 -37.817791 -3.27473 198972
2.3996882 -11.230348 -0.94912291 199170
2.4446752 -11.550586 -0.98064262 199173
2.4598999 -11.658963 -0.99531871 199174
2.4747541 -11.764702 -0.9978286 199175
2.4897625 -11.87154 -1.0037224 199176
2.5050719 -11.980518 -1.0168566 199177
2.5204122 -12.089718 -1.0294651 199178
2.5360713 -12.201186 -1.0492778 199179
2.5517702 -12.312939 -1.068544 199180
2.5679543 -12.428144 -1.0988259 199181
2.596653 -12.632436 -1.0615174 199183
3.6273906 -19.969711 -1.8415138 199234
3.6477773 -20.114832 -1.8524365 199235
3.6699321 -20.272539 -1.883108 199236
3.6901422 -20.416403 -1.8888986 199237
3.710978 -20.564724 -1.9006952 199238
3.7318666 -20.713419 -1.9116378 199239
3.7536907 -20.868774 -1.931901 199240
3.7746887 -21.018246 -1.9410974 199241
3.7969317 -21.176584 -1.962927 199242
3.8198428 -21.339676 -1.9905431 199243
3.8410106 -21.490356 -1.9970434 199244
3.8628364 -21.645723 -2.009361 199245
3.8859458 -21.810226 -2.0341105 199246
3.9072733 -21.962046 -2.0379026 199247
3.9298906 -22.123047 -2.0540807 199248
3.9519441 -22.280035 -2.0626807 199249
3.9753108 -22.446369 -2.0835421 199250
3.9971607 -22.601908 -2.086956 199251
4.0177827 -22.748705 -2.0763433 199252
4.032979 -22.856882 -2.0093458 199253
4.3195357 -24.896725 -2.3623512 199260
4.3445907 -25.075075 -2.3736212 199261
4.3693628 -25.251417 -2.3806489 199262
4.3844471 -25.358793 -2.2992074 199263
4.4106836 -25.545559 -2.3167911 199264
4.6938691 -27.561407 -2.3503909 199267
4.8158083 -28.429428 -2.4623303 199271
4.9345746 -29.27486 -2.5162332 199275
4.9887981 -29.660849 -2.707552 199276
5.0611959 -30.176212 -2.5959454 199279
5.138649 -30.727558 -2.7238386 199281
5.1843934 -31.05319 -2.6176763 199283
6.1206689 -37.718033 -3.4711697 199306
6.131681 -37.796429 -3.3068881 199307
2.5350864 -11.312206 -0.96403641 199506
2.5511267 -11.418208 -0.97192717 199507
2.5670524 -11.523455 -0.97542912 199508
2.5834246 -11.63165 -0.99009657 199509
2.6158314 -11.845811 -1.0062386 199511
2.6324487 -11.955626 -1.0232267 199512
2.6489525 -12.064693 -1.035814 199513
2.6654897 -12.173979 -1.047875 199514
2.7321286 -12.614364 -1.0946683 199517
2.7491639 -12.726942 -1.1117495 199518
2.7657306 -12.836424 -1.1167681 199519
2.7814615 -12.940382 -1.1021047 199520
2.7989407 -13.055894 -1.1252183 199521
2.8164699 -13.171736 -1.1477519 199522
2.8326099 -13.278398 -1.1391755 199523
2.849853 -13.392349 -1.1529598 199524
2.8675041 -13.508997 -1.1737843 199525
2.8844547 -13.621016 -1.178822 199526
3.8837376 -20.224802 -1.8669795 199577
3.9070163 -20.378639 -1.8898889 199578
3.9291151 -20.524679 -1.8982471 199579
3.9522104 -20.677305 -1.9159764 199580
3.9750533 -20.828262 -1.929415 199581
3.998913 -20.985941 -1.9521269 199582
4.0238094 -21.150469 -1.9840221 199583
4.0468478 -21.302719 -1.9947277 199584
4.0705953 -21.459656 -2.011256 199585
4.0930963 -21.608355 -2.0134697 199586
4.1156445 -21.757362 -2.0148256 199587
4.1382384 -21.906677 -2.0153213 199588
4.1638889 -22.076189 -2.0448058 199589
4.1889501 -22.241806 -2.0666318 199590
4.2137465 -22.405674 -2.0841551 199591
4.2392945 -22.574507 -2.107264 199592
4.2632036 -22.732512 -2.1129506 199593
4.5512557 -24.63611 -2.299556 199598
4.5814166 -24.83543 -2.3404481 199599
4.6109433 -25.030558 -2.3737526 199600
4.6368432 -25.201719 -2.3744841 199601
4.6579304 -25.341074 -2.3336027 199602
4.6839137 -25.512785 -2.3323758 199603
4.9898062 -27.534286 -2.3739371 199606
5.0032449 -27.623098 -2.2612362 199607
5.1092463 -28.323608 -2.4001391 199610
5.1312232 -28.468845 -2.3456874 199611
5.1720505 -28.738653 -2.4244771 199612
5.2356949 -29.159248 -2.6609726 199613
5.2686839 -29.377254 -2.6774437 199614
5.3013449 -29.593094 -2.6895773 199615
5.3993793 -30.240961 -2.5001624 199619
5.4433422 -30.531492 -2.5792773 199620
6.3751497 -36.689365 -3.3606741 199642
6.4232411 -37.007175 -3.3966432 199643
6.4737992 -37.341293 -3.4428086 199644
6.5221653 -37.660919 -3.4740493 199645
2.7422106 -11.817616 -1.0048279 199850
2.76016 -11.928237 -1.0256741 199851
2.7776673 -12.036136 -1.034375 199852
2.795536 -12.146261 -1.0502845 199853
2.812772 -12.252486 -1.0502211 199854
2.8308821 -12.364099 -1.0689292 199855
2.8490374 -12.475991 -1.0870875 199856
2.8668847 -12.585983 -1.0970038 199857
2.8842278 -12.69287 -1.0948635 199858
2.9028611 -12.807707 -1.1190647 199859
2.9206259 -12.917192 -1.1235341 199860
2.9389794 -13.030305 -1.1389533 199861
2.9573758 -13.143682 -1.153808 199862
2.9742734 -13.247824 -1.137579 199863
2.992342 -13.35918 -1.1437294 199864
3.0116284 -13.478042 -1.1721579 199865
3.0299745 -13.591108 -1.1809806 199866
3.0481522 -13.703139 -1.1854492 199867
3.0678005 -13.824232 -1.2158815 199868
4.1497645 -20.492395 -1.9127659 199918
4.1999836 -20.801897 -1.9539808 199920
4.2231526 -20.944687 -1.9529127 199921
4.2463651 -21.087746 -1.9510388 199922
4.2737789 -21.256699 -1.9887265 199923
4.298152 -21.40691 -1.9951785 199924
4.3253903 -21.574781 -2.0275207 199925
4.3498926 -21.72579 -2.0321455 199926
4.3748055 -21.879328 -2.0392158 199927
4.4012089 -22.042051 -2.0586512 199928
4.4273276 -22.203022 -2.0737953 199929
4.453517 -22.364428 -2.0879707 199930
4.4797754 -22.526258 -2.1011758 199931
4.5046329 -22.679457 -2.100296 199932
4.5239949 -22.798786 -2.049516 199933
4.5481725 -22.947794 -2.0404758 199934
4.8440189 -24.771097 -2.3184364 199943
4.8775973 -24.978041 -2.3674893 199944
4.906517 -25.156275 -2.3776038 199945
4.9327021 -25.317656 -2.3647611 199946
5.2809725 -27.46405 -2.5667729 199954
5.2852697 -27.49054 -2.3824291 199955
5.422729 -28.337702 -2.4729719 199959
5.4471812 -28.488403 -2.4240458 199960
5.5185733 -28.928394 -2.4715905 199962
5.5710335 -29.251703 -2.6015103 199963
5.5832534 -29.327017 -2.4671483 199964
5.8100176 -30.724567 -2.8289313 199969
5.8473916 -30.954903 -2.8430958 199970
5.8885312 -31.208448 -2.8780248 199971
5.9274926 -31.448566 -2.8972859 199972
5.9522133 -31.600924 -2.8291287 199973
5.9889984 -31.827631 -2.8317008 199974
6.0342636 -32.106598 -2.8820808 199975
6.0670295 -32.308537 -2.8567934 199976
2.8825374 -11.78972 -1.0225701 200199
2.9014633 -11.898235 -1.0356352 200200
2.9199028 -12.003963 -1.0365701 200201
2.9387188 -12.111851 -1.0447309 200202
2.9579284 -12.221993 -1.060092 200203
2.9764464 -12.328172 -1.059497 200204
2.9959168 -12.439811 -1.077648 200205
3.0152457 -12.550638 -1.0914005 200206
3.0338476 -12.657297 -1.0892494 200207
3.0536385 -12.770774 -1.1096042 200208
3.0726898 -12.88001 -1.114067 200209
3.0919707 -12.990562 -1.1218268 200210
3.1118975 -13.104817 -1.1405065 200211
3.1316688 -13.218182 -1.154797 200212
3.1504371 -13.325796 -1.1494739 200213
3.1721945 -13.450547 -1.1968952 200214
3.1910343 -13.558569 -1.1904683 200215
3.2114151 -13.675428 -1.210076 200216
3.2314084 -13.790065 -1.2215104 200217
3.2514441 -13.904946 -1.2323724 200218
4.4167261 -20.586403 -1.9138467 200267
4.4422321 -20.732651 -1.9204504 200268
4.4674301 -20.877129 -1.9228294 200269
4.4978495 -21.051546 -1.9716123 200270
4.5239296 -21.201086 -1.9789308 200271
4.551568 -21.359556 -1.9987981 200272
4.5781555 -21.512003 -2.007679 200273
4.6074619 -21.68004 -2.0390143 200274
4.6353393 -21.839884 -2.056011 200275
4.66291 -21.997967 -2.0687277 200276
4.6909385 -22.158676 -2.0838091 200277
4.7170968 -22.308661 -2.0814385 200278
4.7413454 -22.447697 -2.0617628 200279
4.7754731 -22.643377 -2.1232262 200280
4.7875361 -22.712545 -2.0004826 200281
4.8194237 -22.895382 -2.0404084 200282
5.140202 -24.734648 -2.3432071 200289
5.1719904 -24.916916 -2.360719 200290
5.2000165 -25.077612 -2.3489025 200291
5.2341094 -25.273092 -2.3797982 200292
5.2540398 -25.387369 -2.3068388 200293
5.2800117 -25.536285 -2.2766945 200294
5.6110535 -27.434402 -2.6017151 200300
5.639483 -27.597412 -2.572397 200301
5.6509261 -27.663027 -2.4321177 200302
5.6820998 -27.841768 -2.4190426 200303
5.6970749 -27.927635 -2.3016255 200304
5.7843637 -28.428129 -2.4257388 200306
5.8940725 -29.057171 -2.6762776 200308
5.9314981 -29.271759 -2.6897004 200309
5.9671102 -29.475952 -2.6901791 200310
5.986495 -29.587101 -2.5918958 200311
6.1702209 -30.640541 -2.8103511 200315
6.2137337 -30.890036 -2.8441689 200316
6.256886 -31.137461 -2.8734536 200317
6.3001642 -31.385607 -2.9010112 200318
6.334631 -31.583231 -2.8770549 200319
6.3487067 -31.663942 -2.7389252 200320
7.2025375 -36.559608 -3.3683686 200337
7.2577782 -36.876347 -3.4041533 200338
7.3110285 -37.181671 -3.4275966 200339
7.3681812 -37.509373 -3.4662461 200340
3.0897598 -12.191677 -1.0672075 200548
3.1100111 -12.300837 -1.0781626 200549
3.1299055 -12.408072 -1.0808843 200550
3.1498263 -12.51545 -1.0830903 200551
3.1707942 -12.628471 -1.1039839 200552
3.1914039 -12.739562 -1.1166421 200553
3.2120566 -12.850886 -1.1287488 200554
3.2318993 -12.957842 -1.1250094 200555
3.2530584 -13.071895 -1.1436784 200556
3.2733939 -13.181507 -1.1465113 200557
3.2948709 -13.297274 -1.1678594 200558
3.3152795 -13.407281 -1.1695982 200559
3.3368597 -13.523602 -1.1897947 200560
3.3584976 -13.640237 -1.2093961 200561
3.3792551 -13.752124 -1.2132511 200562
3.4009957 -13.869311 -1.2316803 200563
3.422312 -13.98421 -1.2419587 200564
4.6986027 -20.863714 -1.9792738 200614
4.7246714 -21.00423 -1.9739124 200615
4.7535472 -21.159876 -1.991305 200616
4.7809138 -21.307388 -1.9943531 200617
4.8103385 -21.465994 -2.0132704 200618
4.8394446 -21.622883 -2.0279 200619
4.8678179 -21.775822 -2.0349391 200620
4.899929 -21.948908 -2.0709219 200621
4.9292784 -22.107109 -2.0826762 200622
4.9578762 -22.261257 -2.0868902 200623
4.9852891 -22.409019 -2.0803332 200624
5.0181899 -22.586363 -2.1155155 200625
5.0368862 -22.68714 -2.038518 200626
5.0703483 -22.867508 -2.0750577 200627
5.4035568 -24.663578 -2.3230247 200633
5.4390979 -24.855152 -2.3531578 200634
5.4702106 -25.022858 -2.3507447 200635
5.5059519 -25.215511 -2.378499 200636
5.5294065 -25.341938 -2.3210745 200637
5.562994 -25.522984 -2.331136 200638
5.9003434 -27.341375 -2.5643513 200644
5.9348717 -27.527489 -2.5620236 200645
5.9733763 -27.735039 -2.5822871 200646
6.0110083 -27.937883 -2.5952528 200647
6.0063429 -27.912739 -2.353265 200648
6.0886507 -28.356396 -2.4154944 200650
6.2041092 -28.978745 -2.6602705 200652
6.2443366 -29.195578 -2.6766303 200653
6.28619 -29.421179 -2.7001643 200654
6.3251085 -29.630957 -2.7049708 200655
6.4542632 -30.327131 -2.7760584 200658
6.4982471 -30.564215 -2.8003204 200659
6.5439172 -30.810385 -2.8313568 200660
6.5897217 -31.057283 -2.8606741 200661
6.6377602 -31.316221 -2.8993857 200662
