# .PCD v0.7 - Point Cloud Data file format
VERSION 0.7
FIELDS x y z intensity
SIZE 4 4 4 4
TYPE F F F F
COUNT 1 1 1 1
WIDTH 1183
HEIGHT 1
VIEWPOINT 0 0 0 1 0 0 0
POINTS 1183
DATA ascii
-17.631701 -5.6103439 -1.4957749 156922
-17.769243 -5.6475315 -1.5212152 156923
-17.898251 -5.6824107 -1.5281518 156924
-18.029348 -5.717855 -1.5378981 156925
-18.166225 -5.7548623 -1.5574784 156926
-18.303493 -5.7919755 -1.5762671 156927
-19.186373 -6.0306773 -1.2941958 156935
-22.455111 -6.9144416 -2.0093746 156955
-22.623209 -6.9598904 -2.0323687 156956
-22.794081 -7.0060887 -2.0575378 156957
-22.970037 -7.0536618 -2.0880702 156958
-23.121338 -7.0945687 -2.0820696 156959
-23.29829 -7.1424108 -2.1104391 156960
-23.45956 -7.1860132 -2.1152852 156961
-23.632868 -7.2328706 -2.1350594 156962
-23.827805 -7.2855754 -2.1823041 156963
-23.990417 -7.3295403 -2.1839311 156964
-24.172375 -7.378736 -2.2097785 156965
-24.342955 -7.4248552 -2.2187212 156966
-24.528357 -7.4749823 -2.2453732 156967
-24.702261 -7.5220008 -2.255198 156968
-24.886309 -7.5717611 -2.2763524 156969
-25.056244 -7.6177063 -2.2777009 156970
-25.251083 -7.6703849 -2.3088598 156971
-25.439146 -7.721231 -2.3294814 156972
-25.630228 -7.7728934 -2.3519309 156973
-25.814388 -7.8226848 -2.3639443 156974
-27.301537 -8.2247629 -2.4133654 156982
-27.474062 -8.2714081 -2.3966894 156983
-3.1055558 -1.7180876 -0.10082488 157084
-3.197958 -1.7440481 -0.11376934 157085
-3.2928612 -1.7707113 -0.1064621 157086
-3.3838656 -1.7962791 -0.13046628 157087
-3.4777582 -1.8226583 -0.13023688 157088
-3.5694005 -1.8484054 -0.14944144 157089
-3.663271 -1.8747784 -0.14835852 157090
-3.7566791 -1.9010215 -0.15082075 157091
-3.8488951 -1.9269297 -0.16479434 157092
-3.9404397 -1.9526492 -0.18631533 157093
-4.0339046 -1.9789084 -0.18751183 157094
-4.1266613 -2.0049684 -0.19624969 157095
-4.2188087 -2.0308573 -0.2125373 157096
-4.3110571 -2.0567746 -0.22841205 157097
-4.4028263 -2.0825574 -0.25184745 157098
-4.49476 -2.1083863 -0.27487272 157099
-4.5894136 -2.1349795 -0.25757283 157100
-4.6812649 -2.1607852 -0.28375387 157101
-4.7755303 -2.1872692 -0.26958925 157102
-4.8682137 -2.2133086 -0.28295624 157103
-4.9613643 -2.2394793 -0.28791043 157104
-5.0548773 -2.2657521 -0.28445151 157105
-5.1477218 -2.2918367 -0.29655504 157106
-5.2405114 -2.3179061 -0.31223553 157107
-5.3337808 -2.3441103 -0.31550241 157108
-5.4268532 -2.370259 -0.32634652 157109
-5.5205321 -2.3965781 -0.31277323 157110
-5.6132321 -2.4226224 -0.34676731 157111
-5.7065887 -2.4488511 -0.35234347 157112
-5.800097 -2.4751225 -0.3454999 157113
-5.8933353 -2.501318 -0.37823057 157114
-5.9869027 -2.5276055 -0.35053882 157115
-6.0804553 -2.5538895 -0.39042464 157116
-6.1739259 -2.5801501 -0.3738842 157117
-6.2678652 -2.6065423 -0.40891755 157118
-6.3619103 -2.6329646 -0.43152645 157119
-6.4551892 -2.6591713 -0.4057146 157120
-6.5500035 -2.6858096 -0.45146239 157121
-6.6437316 -2.7121427 -0.44479525 157122
-6.7375441 -2.7384994 -0.44170272 157123
-6.8320794 -2.7650592 -0.45817113 157124
-6.9267678 -2.791662 -0.47420549 157125
-7.0208821 -2.8181036 -0.47382492 157126
-7.1159997 -2.8448269 -0.49299121 157127
-7.2108679 -2.8714802 -0.50373137 157128
-7.3049231 -2.8979051 -0.49806592 157129
-7.4006901 -2.9248111 -0.51991832 157130
-7.4956055 -2.9514775 -0.52536649 157131
-7.5903115 -2.9780855 -0.52638882 157132
-7.6865463 -3.0051227 -0.54692048 157133
-7.7814083 -3.0317745 -0.54707378 157134
-7.8776307 -3.0588081 -0.56273401 157135
-7.9743667 -3.0859864 -0.58193213 157136
-8.069108 -3.1126041 -0.57679039 157137
-8.1657543 -3.1397569 -0.59111559 157138
-8.2633562 -3.1671784 -0.61295289 157139
-8.3603535 -3.1944299 -0.62637728 157140
-8.4557762 -3.2212389 -0.62345183 157141
-8.5557079 -3.249315 -0.65981853 157142
-8.6527338 -3.2765746 -0.66791081 157143
-8.752286 -3.304544 -0.6953944 157144
-8.8501253 -3.3320317 -0.70654058 157145
-8.9455318 -3.3588364 -0.6974082 157146
-9.0457058 -3.3869805 -0.72349775 157147
-9.1428614 -3.4142764 -0.72535092 157148
-9.2400904 -3.4415929 -0.72675622 157149
-9.3397188 -3.4695837 -0.74352586 157150
-9.4365568 -3.4967904 -0.74006546 157151
-9.5346594 -3.5243526 -0.74405432 157152
-9.6353884 -3.5526524 -0.76336837 157153
-9.7376423 -3.5813811 -0.79008353 157154
-9.8335409 -3.6083236 -0.7769056 157155
-9.9355335 -3.6369789 -0.79872155 157156
-10.037782 -3.6657057 -0.8200413 157157
-10.135997 -3.6932991 -0.81728524 157158
-10.239382 -3.7223454 -0.84156132 157159
-10.339313 -3.750421 -0.84571296 157160
-10.440886 -3.7789581 -0.85723013 157161
-10.541859 -3.8073266 -0.86434114 157162
-10.642976 -3.8357353 -0.87097096 157163
-10.746674 -3.8648696 -0.8888461 157164
-10.851439 -3.8943038 -0.91011906 157165
-10.955628 -3.9235756 -0.92697507 157166
-11.051426 -3.95049 -0.90433347 157167
-11.095272 -3.9628081 -0.65148914 157168
-11.568591 -4.0957885 -0.94750327 157172
-11.673114 -4.125154 -0.95694691 157173
-11.776844 -4.1542974 -0.96200925 157174
-11.885689 -4.1848774 -0.98588902 157175
-11.987781 -4.2135601 -0.98219442 157176
-12.094053 -4.2434177 -0.99342984 157177
-12.185953 -4.2692366 -0.95022601 157178
-12.287125 -4.2976608 -0.94123977 157179
-12.364713 -4.3194594 -0.84726238 157180
-12.794711 -4.440268 -0.89288175 157184
-12.905354 -4.4713531 -0.91151464 157185
-13.013941 -4.5018611 -0.92195827 157186
-13.142916 -4.5380964 -0.99654126 157187
-13.266638 -4.5728564 -1.0513895 157188
-13.376336 -4.6036763 -1.0600114 157189
-13.488714 -4.6352491 -1.0756558 157190
-13.596363 -4.665493 -1.075586 157191
-13.714281 -4.6986227 -1.1051942 157192
-13.824902 -4.7297015 -1.1115407 157193
-13.934422 -4.7604713 -1.1135547 157194
-14.055932 -4.7946095 -1.1488544 157195
-14.160607 -4.8240185 -1.1346861 157196
-14.274732 -4.856082 -1.146243 157197
-14.389109 -4.888216 -1.1572027 157198
-14.507864 -4.9215808 -1.1787721 157199
-14.628351 -4.9554319 -1.2034292 157200
-14.739353 -4.986618 -1.2013726 157201
-14.851924 -5.0182447 -1.2024643 157202
-14.970428 -5.0515385 -1.2178169 157203
-15.097955 -5.0873675 -1.2547544 157204
-15.150985 -5.1022658 -1.1024245 157205
-16.933359 -5.6030269 -1.4365569 157219
-17.063536 -5.6395998 -1.4550138 157220
-17.185501 -5.6738663 -1.4548275 157221
-17.323244 -5.7125649 -1.4861417 157222
-17.449247 -5.7479658 -1.49169 157223
-17.582552 -5.785418 -1.5107708 157224
-17.712683 -5.8219786 -1.5219866 157225
-17.844917 -5.8591304 -1.5360106 157226
-17.977493 -5.8963776 -1.5492806 157227
-18.112225 -5.9342303 -1.5653189 157228
-18.247318 -5.9721851 -1.5805806 157229
-22.888 -7.275991 -2.0729368 157260
-23.045687 -7.3202934 -2.0766501 157261
-23.226732 -7.3711581 -2.1114626 157262
-23.396826 -7.4189458 -2.1291034 157263
-23.574373 -7.4688282 -2.1552165 157264
-23.738424 -7.5149183 -2.1611211 157265
-23.928757 -7.5683928 -2.2008126 157266
-24.093712 -7.614737 -2.2045338 157267
-24.263802 -7.6625242 -2.2135041 157268
-24.443886 -7.713119 -2.2339206 157269
-24.626898 -7.7645364 -2.2562854 157270
-24.800762 -7.8133841 -2.2650039 157271
-25.171785 -7.917623 -2.3068833 157273
-25.356865 -7.9696217 -2.3244469 157274
-27.256048 -8.5031996 -2.2444096 157285
-27.401615 -8.544096 -2.1978595 157286
-3.1828744 -1.7748302 -0.10174538 157386
-3.2745409 -1.8015263 -0.11822775 157387
-3.3681791 -1.8287966 -0.11841748 157388
-3.4590371 -1.8552573 -0.14200532 157389
-3.5526721 -1.8825266 -0.14134583 157390
-3.644568 -1.9092896 -0.15615532 157391
-3.7365417 -1.9360752 -0.17054838 157392
-3.8301444 -1.963335 -0.16860981 157393
-3.9222014 -1.990145 -0.18216412 157394
-4.0136213 -2.0167692 -0.20326641 157395
-4.105855 -2.0436306 -0.21598874 157396
-4.1978359 -2.0704184 -0.23228262 157397
-4.2911386 -2.0975907 -0.2322077 157398
-4.3838291 -2.1245852 -0.23968519 157399
-4.4765506 -2.1515884 -0.24674068 157400
-4.5682812 -2.1783032 -0.26934171 157401
-4.6606493 -2.2052038 -0.28354251 157402
-4.7537727 -2.2323241 -0.2853471 157403
-4.8462725 -2.259263 -0.29870927 157404
-4.9398003 -2.2865009 -0.2916787 157405
-5.0332475 -2.3137157 -0.28421962 157406
-5.1261487 -2.3407714 -0.28832364 157407
-5.218379 -2.3676317 -0.31199342 157408
-5.3111534 -2.3946505 -0.32325348 157409
-5.4045281 -2.421844 -0.31409806 157410
-5.4973764 -2.4488842 -0.32451224 157411
-5.5903721 -2.4759674 -0.3305077 157412
-5.6832471 -2.5030155 -0.34807649 157413
-5.776484 -2.530169 -0.34122825 157414
-5.8695159 -2.5572629 -0.3619535 157415
-5.9627237 -2.5844078 -0.37425652 157416
-6.0560069 -2.6115746 -0.37813622 157417
-6.1492925 -2.6387422 -0.37759149 157418
-6.2428079 -2.6659768 -0.39662161 157419
-6.3365498 -2.6932774 -0.4192251 157420
-6.4301648 -2.720541 -0.42540276 157421
-6.5238385 -2.7478216 -0.4311536 157422
-6.6177964 -2.7751851 -0.44447598 157423
-6.7117457 -2.802546 -0.4533723 157424
-6.8065176 -2.8301466 -0.48182252 157425
-6.8999019 -2.8573427 -0.46987358 157426
-6.9939246 -2.8847251 -0.4734849 157427
-7.0889821 -2.9124088 -0.49663991 157428
-7.1829681 -2.9397805 -0.4953939 157429
-7.2774267 -2.9672897 -0.50170326 157430
-7.3722091 -2.9948931 -0.51157433 157431
-7.4663048 -3.0222967 -0.50903809 157432
-7.5620918 -3.0501928 -0.53000695 157433
-7.6562972 -3.0776284 -0.52660447 157434
-7.7527041 -3.105705 -0.55068028 157435
-7.8473587 -3.1332712 -0.55039263 157436
-7.9444785 -3.1615558 -0.57755607 157437
-8.0389462 -3.1890676 -0.57240969 157438
-8.1341705 -3.2167997 -0.57479429 157439
-8.2326355 -3.245476 -0.60856658 157440
-8.3310108 -3.2741258 -0.63789392 157441
-8.4270878 -3.3021061 -0.64290607 157442
-8.5241461 -3.3303726 -0.65542144 157443
-8.6190348 -3.3580072 -0.64762712 157444
-8.718235 -3.3868973 -0.67511588 157445
-8.8177156 -3.4158692 -0.70213294 157446
-8.9154177 -3.4443231 -0.71281987 157447
-9.0143261 -3.4731281 -0.73096991 157448
-9.1123457 -3.5016747 -0.74073154 157449
-9.2088146 -3.5297692 -0.7381627 157450
-9.3053188 -3.5578742 -0.73514986 157451
-9.4078331 -3.5877297 -0.77120239 157452
-9.5033474 -3.6155462 -0.75937086 157453
-9.6032391 -3.6446378 -0.77472037 157454
-9.7000933 -3.6728446 -0.76988202 157455
-9.803607 -3.7029912 -0.80399144 157456
-9.9006805 -3.731262 -0.79822123 157457
-10.000564 -3.7603507 -0.80773616 157458
-10.099888 -3.7892771 -0.8128441 157459
-10.203707 -3.8195124 -0.84104425 157460
-10.303366 -3.8485363 -0.84519041 157461
-10.404664 -3.8780372 -0.85670197 157462
-10.506142 -3.9075906 -0.86772472 157463
-10.607 -3.936964 -0.87434453 157464
-10.710434 -3.967087 -0.89221126 157465
-10.814934 -3.9975204 -0.91347396 157466
-10.913793 -4.0263109 -0.90690756 157467
-11.016129 -4.0561152 -0.91546685 157468
-11.094085 -4.0788178 -0.8144871 157469
-11.146285 -4.0940194 -0.60430646 157470
-11.53308 -4.2066669 -0.96242601 157473
-11.638342 -4.2373223 -0.97571963 157474
-11.741872 -4.2674732 -0.98075294 157475
-11.851495 -4.2993989 -1.008469 157476
-11.948372 -4.3276124 -0.98543966 157477
-12.054374 -4.3584833 -0.99666655 157478
-12.154349 -4.3875995 -0.98425865 157479
-12.248006 -4.414875 -0.94830334 157480
-12.337193 -4.4408488 -0.89656591 157481
-12.391274 -4.4565988 -0.72168952 157482
-12.783892 -4.5709414 -0.99921679 157485
-12.891229 -4.6022015 -1.0062525 157486
-13.003425 -4.6348758 -1.0279882 157487
-13.112382 -4.6666079 -1.0377245 157488
-13.220357 -4.6980534 -1.0431038 157489
-13.328511 -4.7295513 -1.0479403 157490
-13.442999 -4.7628937 -1.0711715 157491
-13.556574 -4.7959704 -1.0900151 157492
-13.667923 -4.8283987 -1.1007093 157493
-13.779507 -4.8608952 -1.1108264 157494
-13.895202 -4.8945889 -1.1316649 157495
-14.004672 -4.9264703 -1.1330878 157496
-14.115627 -4.9587836 -1.1377069 157497
-14.22946 -4.9919353 -1.1492511 157498
-14.347613 -5.0263453 -1.1714256 157499
-14.459245 -5.0588555 -1.1742829 157500
-14.578003 -5.0934415 -1.195212 157501
-14.694287 -5.1273074 -1.2080547 157502
-14.803745 -5.1591849 -1.2016937 157503
-14.929104 -5.195693 -1.2355883 157504
-15.041856 -5.2285299 -1.2354518 157505
-15.163576 -5.263979 -1.256911 157506
-15.165621 -5.2645736 -0.97879201 157507
-16.879543 -5.763721 -1.4356717 157520
-17.011063 -5.8020239 -1.4577111 157521
-17.139553 -5.8394437 -1.4718339 157522
-17.266645 -5.8764572 -1.481662 157523
-17.394032 -5.9135561 -1.4907764 157524
-17.521709 -5.9507394 -1.4991763 157525
-17.656754 -5.9900684 -1.5210586 157526
-17.783278 -6.0269165 -1.5244513 157527
-17.922649 -6.0675054 -1.5518718 157528
-18.04977 -6.1045275 -1.5537934 157529
-18.191771 -6.1458821 -1.5831383 157530
-18.103741 -6.120244 -1.1730522 157531
-18.57939 -6.2587686 -1.5892706 157533
-19.176929 -6.4327898 -1.2584239 157539
-22.811247 -7.4912157 -2.0620403 157561
-22.977591 -7.53966 -2.0786467 157562
-23.148983 -7.5895748 -2.1006095 157563
-23.327805 -7.6416531 -2.1310596 157564
-23.509531 -7.6945772 -2.1635246 157565
-23.663836 -7.7395153 -2.1566858 157566
-23.837202 -7.7900052 -2.174222 157567
-24.013412 -7.8413234 -2.1937914 157568
-24.190125 -7.8927875 -2.2122157 157569
-24.369722 -7.9450912 -2.2326224 157570
-24.545033 -7.9961472 -2.2456117 157571
-24.906729 -8.1014843 -2.2805746 157573
-26.93531 -8.6922693 -2.3929973 157584
-27.158075 -8.7571449 -2.4368253 157585
-27.334949 -8.8086567 -2.4259596 157586
-27.522551 -8.8632917 -2.4257061 157587
-27.373024 -8.8197441 -2.0465009 157588
-3.0702708 -1.7797568 -0.10455969 157686
-3.2550602 -1.8356841 -0.12208354 157688
-3.3493629 -1.8642251 -0.11433288 157689
-3.4421899 -1.8923197 -0.11805352 157690
-3.5332506 -1.9198796 -0.13724618 157691
-3.6231632 -1.9470921 -0.1679523 157692
-3.7161119 -1.9752234 -0.17041476 157693
-3.809036 -2.0033472 -0.17245099 157694
-3.9019353 -2.0314636 -0.17405692 157695
-3.9912689 -2.0585008 -0.21507023 157696
-4.0842776 -2.0866504 -0.21583816 157697
-4.1762943 -2.1144996 -0.22813892 157698
-4.2683773 -2.1423688 -0.24002373 157699
-4.3611007 -2.1704319 -0.24350989 157700
-4.4535503 -2.1984122 -0.25056267 157701
-4.545013 -2.2260938 -0.27316085 157702
-4.6373477 -2.2540393 -0.28336644 157703
-4.7301817 -2.282136 -0.28516674 157704
-4.8230057 -2.3102295 -0.28654376 157705
-4.9145074 -2.337923 -0.31546253 157706
-5.0084457 -2.3663538 -0.2920197 157707
-5.1009383 -2.394347 -0.30011675 157708
-5.1937537 -2.4224379 -0.2998006 157709
-5.2864304 -2.4504869 -0.30305737 157710
-5.3789129 -2.478477 -0.3138878 157711
-5.4712996 -2.5064383 -0.33229631 157712
-5.5641088 -2.5345275 -0.33428869 157713
-5.6568732 -2.5626028 -0.33985487 157714
-5.7496758 -2.5906899 -0.34499967 157715
-5.8425765 -2.6188068 -0.33772197 157716
-5.9353848 -2.6468956 -0.36202133 157717
-6.0284071 -2.6750493 -0.38989615 157718
-6.1214523 -2.7032096 -0.3893477 157719
-6.2148681 -2.7314825 -0.42037123 157720
-6.3080382 -2.7596807 -0.41897202 157721
-6.4014421 -2.7879498 -0.42914471 157722
-6.4944544 -2.8161004 -0.41889703 157723
-6.5884109 -2.8445368 -0.44420996 157724
-6.6823277 -2.872961 -0.46109769 157725
-6.7756643 -2.9012098 -0.45756686 157726
-6.8701301 -2.9298003 -0.48158368 157727
-6.9639106 -2.9581833 -0.48518717 157728
-7.0577383 -2.9865806 -0.48836419 157729
-7.1524663 -3.0152504 -0.5070824 157730
-7.2464514 -3.0436954 -0.50939322 157731
-7.3394904 -3.0718541 -0.49530557 157732
-7.4355989 -3.1009419 -0.52868533 157733
-7.5297709 -3.1294434 -0.52969754 157734
-7.625464 -3.1584053 -0.55021894 157735
-7.7216725 -3.1875231 -0.57428145 157736
-7.8158021 -3.2160118 -0.56999648 157737
-7.9123573 -3.2452347 -0.59316546 157738
-8.0069609 -3.2738669 -0.59198761 157739
-8.1012106 -3.302392 -0.58639807 157740
-8.197834 -3.3316355 -0.60424638 157741
-8.2963009 -3.3614371 -0.63754922 157742
-8.3903589 -3.3899038 -0.62665886 157743
-8.488389 -3.4195733 -0.65109348 157744
-8.5834293 -3.4483373 -0.64726919 157745
-8.6828012 -3.4784129 -0.67872274 157746
-8.7814941 -3.5082827 -0.70176584 157747
-8.8768415 -3.5371399 -0.69659084 157748
-8.9743176 -3.5666416 -0.70682287 157749
-9.0746632 -3.5970116 -0.73639166 157750
-9.1708136 -3.6261117 -0.73382258 157751
-9.2681599 -3.6555741 -0.73871458 157752
-9.3656092 -3.6850677 -0.74315035 157753
-9.4637699 -3.7147763 -0.75107586 157754
-9.5645752 -3.7452855 -0.77431715 157755
-9.6630621 -3.7750928 -0.78130209 157756
-9.7636604 -3.8055394 -0.79963768 157757
-9.8597364 -3.8346174 -0.78993058 157758
-9.9599705 -3.8649535 -0.80338049 157759
-10.066076 -3.8970671 -0.84779179 157760
-10.164632 -3.9268951 -0.84846795 157761
-10.26327 -3.9567485 -0.84867764 157762
-10.36655 -3.9880066 -0.87194425 157763
-10.462343 -4.0169988 -0.8555299 157764
-10.567595 -4.0488534 -0.88563734 157765
-10.665094 -4.078362 -0.87611848 157766
-10.774981 -4.1116199 -0.92473394 157767
-10.87358 -4.1414614 -0.91814893 157768
-10.975649 -4.1723528 -0.92669398 157769
-11.063021 -4.1987963 -0.86853737 157770
-11.178496 -4.2337456 -0.9345094 157771
-11.2783 -4.2639513 -0.92990887 157772
-11.483723 -4.3261237 -0.94254422 157774
-11.590487 -4.3584361 -0.96360362 157775
-11.696561 -4.3905401 -0.98025155 157776
-11.800905 -4.4221201 -0.98863834 157777
-11.904426 -4.4534512 -0.99264967 157778
-12.006052 -4.4842086 -0.98843932 157779
-12.111897 -4.5162435 -0.99914068 157780
-12.201118 -4.5432463 -0.94777864 157781
-12.304978 -4.5746799 -0.94981372 157782
-12.374285 -4.5956554 -0.828574 157783
-12.848083 -4.7390528 -1.0247773 157787
-12.949534 -4.7697573 -1.0121872 157788
-13.058089 -4.8026118 -1.0219374 157789
-13.171642 -4.8369794 -1.0463343 157790
-13.277054 -4.8688827 -1.043571 157791
-13.391171 -4.9034204 -1.0668036 157792
-13.499404 -4.9361777 -1.0705142 157793
-13.621659 -4.9731789 -1.1152308 157794
-13.729134 -5.0057063 -1.1140033 157795
-13.835454 -5.0378847 -1.1084675 157796
-13.95363 -5.0736513 -1.1362426 157797
-14.061614 -5.1063333 -1.133343 157798
-14.180427 -5.142292 -1.1598797 157799
-14.292848 -5.1763167 -1.1670626 157800
-14.357577 -5.1959076 -1.0429101 157801
-14.436657 -5.219841 -0.95963204 157802
-15.101779 -5.4211431 -1.2414644 157807
-15.077152 -5.4136891 -0.89694822 157808
-16.821611 -5.941658 -1.4421268 157821
-16.945992 -5.9793019 -1.4497887 157822
-17.075758 -6.0185761 -1.4675041 157823
-17.2076 -6.0584793 -1.4880526 157824
-17.331152 -6.0958724 -1.4900153 157825
-17.46018 -6.1349235 -1.5019661 157826
-17.591291 -6.1746049 -1.5167372 157827
-17.717405 -6.2127738 -1.5201311 157828
-17.863508 -6.2569923 -1.5616871 157829
-17.98847 -6.2948127 -1.5600511 157830
-18.131882 -6.3382173 -1.5928928 157831
-18.259253 -6.3767657 -1.5932925 157832
-22.899633 -7.7811966 -2.0808454 157863
-23.070503 -7.8329115 -2.1027901 157864
-23.244183 -7.8854766 -2.1268291 157865
-23.404499 -7.9339967 -2.1306219 157866
-23.59078 -7.9903755 -2.16834 157867
-24.094286 -8.1427641 -2.1954257 157870
-24.280401 -8.1990919 -2.2252762 157871
-27.68811 -9.2304497 -2.2919202 157890
-27.717804 -9.2394352 -2.1142035 157891
-27.722624 -9.2408943 -1.9106506 157892
-3.1439481 -1.8372177 -0.12531915 157989
-3.2375882 -1.8665313 -0.12196875 157990
-3.3292735 -1.895233 -0.13406028 157991
-3.4232671 -1.9246575 -0.12587598 157992
-3.5145316 -1.9532275 -0.14109279 157993
-3.607132 -1.9822156 -0.14396533 157994
-3.7005141 -2.0114486 -0.13845707 157995
-3.7914925 -2.0399292 -0.1563917 157996
-3.8807325 -2.0678654 -0.19381872 157997
-3.9734156 -2.0968795 -0.19500434 157998
-4.0653982 -2.1256745 -0.2037316 157999
-4.1561384 -2.1540804 -0.22798075 158000
-4.2485595 -2.1830122 -0.23188607 158001
-4.3401203 -2.2116752 -0.24733318 158002
-4.4320474 -2.2404528 -0.2583726 158003
-4.5230246 -2.2689328 -0.28495875 158004
-4.6158495 -2.2979913 -0.28318655 158005
-4.708632 -2.3270364 -0.28099039 158006
-4.8009653 -2.3559411 -0.28635514 158007
-4.8929477 -2.3847358 -0.2992872 158008
-4.9858646 -2.4138231 -0.29182234 158009
-5.0782404 -2.4427412 -0.29591888 158010
-5.1702232 -2.4715359 -0.31158566 158011
-5.2629189 -2.5005541 -0.3068442 158012
-5.3549423 -2.5293617 -0.32566917 158013
-5.4477158 -2.558404 -0.31608027 158014
-5.539629 -2.5871773 -0.35006025 158015
-5.6325083 -2.6162527 -0.33162841 158016
-5.7249341 -2.6451862 -0.34476742 158017
-5.8174839 -2.6741586 -0.35348457 158018
-5.9100986 -2.7031515 -0.36578009 158019
-6.0027738 -2.732163 -0.3656508 158020
-6.0956879 -2.7612495 -0.39709577 158021
-6.1886783 -2.79036 -0.41211829 158022
-6.2816072 -2.8194509 -0.41471359 158023
-6.3747225 -2.8486004 -0.42488244 158024
-6.4679294 -2.8777783 -0.43462545 158025
-6.5612259 -2.9069846 -0.44393823 158026
-6.6546102 -2.9362183 -0.45282584 158027
-6.7485204 -2.9656165 -0.47327229 158028
-6.8416348 -2.9947655 -0.46930963 158029
-6.9349117 -3.0239656 -0.4689177 158030
-7.0295792 -3.0536008 -0.4960584 158031
-7.1232123 -3.0829124 -0.49879718 158032
-7.2171192 -3.1123097 -0.50509936 158033
-7.3115945 -3.1418848 -0.51894951 158034
-7.4051566 -3.171174 -0.51640153 158035
-7.5001221 -3.2009027 -0.53337091 158036
-7.593184 -3.2300355 -0.52198321 158037
-7.6893091 -3.2601271 -0.55003709 158038
-7.7863593 -3.2905083 -0.5856052 158039
-7.8792396 -3.3195841 -0.56893015 158040
-7.9749174 -3.3495359 -0.58368707 158041
-8.0711346 -3.3796563 -0.60197532 158042
-8.1671476 -3.4097128 -0.61583495 158043
-8.2620792 -3.4394307 -0.61731339 158044
-8.3596401 -3.4699719 -0.64220029 158045
-8.4574518 -3.5005915 -0.66662228 158046
-8.5532036 -3.5305662 -0.67072713 158047
-8.6495152 -3.5607164 -0.67835236 158048
-8.7484159 -3.591677 -0.70535779 158049
-8.8440132 -3.6216035 -0.70413834 158050
-8.9385977 -3.6512125 -0.69455528 158051
-9.039691 -3.6828597 -0.73204547 158052
-9.1333008 -3.7121639 -0.7136457 158053
-9.2331686 -3.743427 -0.73831666 158054
-9.3350849 -3.7753315 -0.77435696 158055
-9.4300385 -3.8050566 -0.76251209 158056
-9.5280933 -3.8357522 -0.7699607 158057
-9.6294937 -3.8674951 -0.7966578 158058
-9.7239275 -3.8970573 -0.77951932 158059
-9.8270779 -3.9293482 -0.81312603 158060
-9.9243479 -3.9597983 -0.81081659 158061
-10.0238 -3.9909313 -0.81984234 158062
-10.122678 -4.0218849 -0.82446504 158063
-10.226862 -4.0544991 -0.85607976 158064
-10.329117 -4.0865097 -0.87541449 158065
-10.423872 -4.1161728 -0.85507578 158066
-10.528027 -4.148778 -0.88126343 158067
-10.627645 -4.1799631 -0.88347298 158068
-10.732308 -4.2127275 -0.9086408 158069
-10.833073 -4.2442713 -0.91377467 158070
-10.932261 -4.275322 -0.91062248 158071
-11.03413 -4.3072119 -0.91868097 158072
-11.118403 -4.3335934 -0.84843445 158073
-11.222985 -4.3663321 -0.8672359 158074
-11.550634 -4.4689016 -0.97084141 158077
-11.652556 -4.5008078 -0.97200167 158078
-11.752625 -4.5321341 -0.96493441 158079
-11.863754 -4.5669227 -0.9998467 158080
-11.965115 -4.5986533 -0.99562383 158081
-12.06862 -4.6310549 -0.99860889 158082
-12.160724 -4.6598878 -0.95877969 158083
-12.263265 -4.691988 -0.95695424 158084
-12.338881 -4.7156591 -0.85871977 158085
-12.389668 -4.7315574 -0.67594177 158086
-13.014403 -4.9271293 -1.0289704 158091
-13.09785 -4.9532518 -0.95835572 158092
-13.134932 -4.9648595 -0.7432285 158093
-13.936197 -5.2156935 -0.91498947 158100
-14.036419 -5.247067 -0.89315122 158101
-14.15955 -5.2856126 -0.934439 158102
-14.268164 -5.3196139 -0.93394417 158103
-14.385213 -5.356256 -0.9552626 158104
-15.029377 -5.5579095 -1.1890367 158109
-15.138652 -5.5921178 -1.1804148 158110
-16.881886 -6.1378312 -1.4346726 158124
-17.018015 -6.1804457 -1.4667386 158125
-17.144327 -6.2199879 -1.4765617 158126
-17.274395 -6.260705 -1.4928038 158127
-17.401318 -6.3004379 -1.5011824 158128
-17.533806 -6.3419127 -1.5194954 158129
-17.666666 -6.3835044 -1.5370429 158130
-17.794523 -6.4235296 -1.5432167 158131
-17.926264 -6.4647703 -1.5557182 158132
-18.071064 -6.5100994 -1.5920775 158133
-18.196228 -6.5492816 -1.588963 158134
-18.605879 -6.6775203 -1.1643107 158139
-19.157236 -6.850122 -1.6888801 158141
-22.829456 -7.9996982 -2.0862417 158165
-22.995295 -8.0516129 -2.1017423 158166
-27.366165 -9.419899 -2.4526241 158190
-27.417906 -9.4360952 -2.2987468 158191
-27.518427 -9.4675627 -2.2002645 158192
-27.534523 -9.4726019 -2.0083973 158193
-3.1277156 -1.8676043 -0.11348428 158291
-3.2215052 -1.8979504 -0.10616557 158292
-3.3105111 -1.9267489 -0.13809822 158293
-3.4037862 -1.9569287 -0.13388929 158294
-3.4956741 -1.9866596 -0.14116602 158295
-3.5879936 -2.0165303 -0.14404108 158296
-3.6786861 -2.0458746 -0.16240117 158297
-3.770256 -2.0755026 -0.1723908 158298
-3.8618667 -2.1051438 -0.18195991 158299
-3.9517589 -2.1342289 -0.21102041 158300
-4.044198 -2.1641383 -0.21178885 158301
-4.1353331 -2.1936257 -0.22807133 158302
-4.2283788 -2.2237313 -0.22001736 158303
-4.3181853 -2.2527888 -0.2554068 158304
-4.4101357 -2.2825398 -0.26246023 158305
-4.5016093 -2.3121369 -0.27707699 158306
-4.593884 -2.3419929 -0.27929705 158307
-4.6857109 -2.3717041 -0.28908208 158308
-4.7782025 -2.4016304 -0.28646317 158309
-4.8699055 -2.4313016 -0.29939771 158310
-4.9625411 -2.4612744 -0.29193538 158311
-5.0544839 -2.4910231 -0.30003056 158312
-5.1466126 -2.5208321 -0.30370843 158313
-5.2383962 -2.5505292 -0.31895837 158314
-5.3307042 -2.5803959 -0.31779468 158315
-5.4229035 -2.6102278 -0.32020584 158316
-5.5151825 -2.6400852 -0.31819421 158317
-5.6072221 -2.6698654 -0.33175892 158318
-5.6992579 -2.6996441 -0.35689893 158319
-5.7915559 -2.7295077 -0.36962113 158320
-5.8839698 -2.759409 -0.3659181 158321
-5.9763775 -2.7893081 -0.36979067 158322
-6.0688162 -2.8192172 -0.37323958 158323
-6.1616573 -2.8492565 -0.40826157 158324
-6.2544136 -2.8792684 -0.41886154 158325
-6.3471036 -2.9092591 -0.42103371 158326
-6.4402032 -2.9393821 -0.43877745 158327
-6.5332332 -2.9694824 -0.44809219 158328
-6.6266093 -2.9996951 -0.46497577 158329
-6.7195539 -3.0297678 -0.46543998 158330
-6.8125157 -3.0598462 -0.46547592 158331
-6.9062104 -3.0901618 -0.481069 158332
-6.999856 -3.1204615 -0.49223274 158333
-7.0936131 -3.1507971 -0.5029614 158334
-7.1870227 -3.1810205 -0.50527269 158335
-7.2821932 -3.2118137 -0.53509355 158336
-7.3758001 -3.2421007 -0.53653222 158337
-7.470561 -3.2727613 -0.55349797 158338
-7.564013 -3.3029983 -0.55008197 158339
-7.6596503 -3.3339424 -0.57414258 158340
-7.7515788 -3.3636863 -0.54992938 158341
-7.8488579 -3.3951619 -0.58903915 158342
-7.9414368 -3.4251163 -0.57193381 158343
-8.039958 -3.4569933 -0.61809391 158344
-8.1321945 -3.4868371 -0.5961417 158345
-8.2308655 -3.5187631 -0.63739878 158346
-8.3265018 -3.5497069 -0.64637953 158347
-8.4227009 -3.5808327 -0.65888613 158348
-8.5172081 -3.6114109 -0.65505457 158349
-8.6141157 -3.6427662 -0.67062759 158350
-8.7126837 -3.6746585 -0.69764078 158351
-8.8099966 -3.7061448 -0.71228611 158352
-8.907485 -3.7376881 -0.72646773 158353
-9.0018902 -3.7682333 -0.7164309 158354
-9.1001835 -3.8000367 -0.7336545 158355
-9.198103 -3.8317194 -0.74645108 158356
-9.2967815 -3.8636475 -0.76273251 158357
-9.3932247 -3.8948522 -0.76274532 158358
-9.4916067 -3.9266844 -0.77414119 158359
-9.593996 -3.9598134 -0.80872434 158360
-9.6914806 -3.9913552 -0.81127793 158361
-9.7863617 -4.0220547 -0.79762244 158362
-9.8860331 -4.0543036 -0.81106317 158363
-9.9901285 -4.0879846 -0.84760571 158364
-10.086652 -4.1192155 -0.84042549 158365
-10.185411 -4.1511698 -0.84456503 158366
-10.286551 -4.1838937 -0.85999006 158367
-10.389443 -4.2171855 -0.88275361 158368
-10.491032 -4.2500553 -0.89717966 158369
-10.588 -4.2814298 -0.88764894 158370
-10.689079 -4.3141346 -0.8971926 158371
-10.788652 -4.3463521 -0.89843792 158372
-10.892591 -4.3799825 -0.91869283 158373
-10.994185 -4.4128537 -0.92674714 158374
-11.076467 -4.4394765 -0.84871334 158375
-11.166308 -4.4685454 -0.80534047 158376
-11.507383 -4.5789027 -0.97113192 158379
-11.607064 -4.611155 -0.96455735 158380
-11.716616 -4.6466012 -0.99614573 158381
-11.817557 -4.6792612 -0.99242663 158382
-11.920606 -4.7126036 -0.99592561 158383
-12.028945 -4.7476573 -1.018169 158384
-12.130264 -4.7804399 -1.012931 158385
-12.217852 -4.8087792 -0.95726407 158386
-12.311563 -4.8390999 -0.92424917 158387
-12.373405 -4.8591094 -0.77969968 158388
-12.769676 -4.9873252 -0.72614336 158392
-12.99285 -5.059535 -0.77629453 158394
-13.098925 -5.0938559 -0.78150523 158395
-13.212499 -5.1306033 -0.80890948 158396
-13.762394 -5.3085256 -0.86901957 158401
-14.213949 -5.4546294 -0.92683583 158405
-14.327861 -5.4914865 -0.94071323 158406
-14.426735 -5.5234776 -0.9130255 158407
-15.118292 -5.7472363 -1.2656779 158412
-16.832535 -6.3018913 -1.456643 158426
-16.953083 -6.3408957 -1.4564328 158427
-17.08581 -6.3838401 -1.480577 158428
-17.210321 -6.4241266 -1.486117 158429
-17.33857 -6.4656224 -1.4980745 158430
-17.467133 -6.5072198 -1.5093006 158431
-17.601313 -6.5506344 -1.5304153 158432
-17.737673 -6.5947547 -1.5542773 158433
-17.867256 -6.6366825 -1.5632319 158434
-17.998955 -6.6792946 -1.5749596 158435
-18.130978 -6.7220111 -1.5859251 158436
-18.351421 -6.7933369 -1.5217559 158438
-19.280909 -7.0940781 -1.3279983 158446
-27.272043 -9.6796646 -2.2379837 158493
-27.332842 -9.6993351 -1.8871561 158495
-28.396561 -10.043509 -2.4219079 158498
-3.0150199 -1.8689289 -0.11638968 158591
-3.1085837 -1.9002835 -0.10950645 158592
-3.1991444 -1.9306316 -0.12598723 158593
-3.2907197 -1.9613198 -0.1341144 158594
-3.3823121 -1.9920136 -0.14181709 158595
-3.473053 -2.0224223 -0.15704368 158596
-3.5651212 -2.0532756 -0.15992802 158597
-3.6559684 -2.0837197 -0.17431787 158598
-3.7484238 -2.1147027 -0.17237413 158599
-3.8404546 -2.1455436 -0.17397767 158600
-3.9296546 -2.1754358 -0.20702054 158601
-4.0220947 -2.2064137 -0.20380153 158602
-4.1135187 -2.2370512 -0.21211018 158603
-4.2040739 -2.2673976 -0.23195992 158604
-4.2950444 -2.297883 -0.247409 158605
-4.3866463 -2.3285801 -0.25446081 158606
-4.478025 -2.3592024 -0.26508296 158607
-4.5694633 -2.3898447 -0.27528492 158608
-4.6613965 -2.4206529 -0.27708006 158609
-4.7531171 -2.4513896 -0.28244707 158610
-4.8450456 -2.4821961 -0.28339428 158611
-4.9359474 -2.5126586 -0.30789471 158612
-5.0280981 -2.5435395 -0.304003 158613
-5.1197915 -2.5742671 -0.3116793 158614
-5.2116518 -2.6050508 -0.31493437 158615
-5.3035235 -2.6358385 -0.31776929 158616
-5.3954072 -2.66663 -0.32017991 158617
-5.4868827 -2.6972847 -0.34616399 158618
-5.5787764 -2.7280796 -0.35572755 158619
-5.6708503 -2.7589347 -0.35287252 158620
-5.7627959 -2.789747 -0.36959314 158621
-5.8548832 -2.8206067 -0.37788904 158622
-5.9470367 -2.8514888 -0.38576096 158623
-6.0393443 -2.8824222 -0.40520892 158624
-6.131629 -2.9133482 -0.4082315 158625
-6.2241302 -2.9443467 -0.42282888 158626
-6.31636 -2.9752541 -0.41700315 158627
-6.4090285 -3.0063086 -0.43074608 158628
-6.5017061 -3.0373662 -0.44006506 158629
-6.5953751 -3.0687559 -0.476935 158630
-6.6884871 -3.0999591 -0.4893896 158631
-6.7802567 -3.1307123 -0.46544221 158632
-6.8739872 -3.1621227 -0.48902562 158633
-6.9671497 -3.1933429 -0.49619195 158634
-7.0606022 -3.2246602 -0.50691968 158635
-7.1527948 -3.2555552 -0.49325767 158636
-7.2478352 -3.2874045 -0.52707422 158637
-7.3421335 -3.3190053 -0.54447752 158638
-7.4343796 -3.3499181 -0.5295251 158639
-7.5297675 -3.3818841 -0.55802029 158640
-7.6229339 -3.4131052 -0.55417132 158641
-7.7183924 -3.4450948 -0.57778496 158642
-7.8144217 -3.4772756 -0.60493177 158643
-7.9078302 -3.5085781 -0.59976709 158644
-8.0008554 -3.539752 -0.5901897 158645
-8.0969849 -3.5719664 -0.61201471 158646
-8.1962032 -3.605216 -0.66121608 158647
-8.2894802 -3.6364744 -0.6503123 158648
-8.3849239 -3.6684587 -0.6588434 158649
-8.4791059 -3.7000208 -0.6550113 158650
-8.5771093 -3.7328629 -0.68249029 158651
-8.6744041 -3.7654679 -0.70156127 158652
-8.7719088 -3.7981429 -0.72016799 158653
-8.8675222 -3.8301845 -0.72246069 158654
-8.9664555 -3.8633382 -0.74805725 158655
-9.0611992 -3.8950882 -0.74151957 158656
-9.161684 -3.9287622 -0.77408165 158657
-9.2595491 -3.9615579 -0.78639293 158658
-9.3533335 -3.9929864 -0.77059537 158659
-9.452034 -4.0260625 -0.78593206 158660
-9.5509272 -4.0592027 -0.80078906 158661
-9.6454239 -4.0908699 -0.78758949 158662
-9.7459259 -4.1245499 -0.80938065 158663
-9.8446159 -4.1576223 -0.81887883 158664
-9.9441624 -4.1909819 -0.83183318 158665
-10.042452 -4.2239199 -0.8364464 158666
-10.143803 -4.2578835 -0.85628194 158667
-10.241632 -4.2906675 -0.85601676 158668
-10.343387 -4.3247671 -0.87486488 158669
-10.441454 -4.3576307 -0.87364483 158670
-10.542802 -4.3915939 -0.8875941 158671
-10.644352 -4.4256248 -0.9010427 158672
-10.747769 -4.4602814 -0.92179376 158673
-10.84975 -4.4944563 -0.93422949 158674
-10.951058 -4.5284066 -0.94226658 158675
-11.041945 -4.5588636 -0.90312093 158676
-11.119127 -4.5847282 -0.80528235 158677
-11.56511 -4.7341838 -0.99157971 158681
-11.663636 -4.7672009 -0.98062813 158682
-11.76715 -4.8018904 -0.98850441 158683
-11.873872 -4.8376541 -1.0074308 158684
-11.978808 -4.8728199 -1.0181061 158685
-12.082907 -4.9077048 -1.0244069 158686
-12.164951 -4.9351988 -0.94951862 158687
-12.273346 -4.9715233 -0.97021937 158688
-12.347154 -4.9962573 -0.86775625 158689
-12.713539 -5.1190376 -0.71464413 158693
-12.944147 -5.1963177 -0.79142392 158695
-13.051121 -5.2321658 -0.80040807 158696
-13.168031 -5.2713442 -0.83915049 158697
-13.695962 -5.4482613 -0.8388679 158702
-14.16039 -5.6038976 -0.93796784 158706
-14.2767 -5.6428747 -0.95928222 158707
-14.386408 -5.6796393 -0.96134681 158708
-15.053176 -5.9030833 -1.2545252 158713
-15.153279 -5.9366293 -1.2231129 158714
-16.388859 -6.3506894 -1.4134994 158724
-16.518064 -6.3939881 -1.4369725 158725
-16.637707 -6.4340816 -1.4381192 158726
-16.762585 -6.4759302 -1.4493744 158727
-16.892828 -6.5195761 -1.4706669 158728
-17.006413 -6.5576401 -1.45547 158729
-17.1493 -6.6055241 -1.5002868 158730
-17.265034 -6.6443076 -1.4873092 158731
-17.401854 -6.6901579 -1.5163063 158732
-17.540894 -6.736752 -1.5480288 158733
-17.659082 -6.7763586 -1.5365162 158734
-17.81324 -6.8280196 -1.5948645 158735
-17.941004 -6.8708348 -1.5994824 158736
-18.065392 -6.9125185 -1.5963545 158737
-18.140413 -6.9376597 -1.4980234 158738
-18.805128 -7.1604142 -1.3099638 158744
-27.308224 -10.00992 -2.1833403 158795
-27.399794 -10.040606 -2.075763 158796
-27.548525 -10.090448 -2.0314198 158797
-28.210089 -10.312148 -2.1241934 158800
-2.997263 -1.8973075 -0.11637207 158892
-3.0900297 -1.9293721 -0.11345287 158893
-3.182718 -1.9614092 -0.11009921 158894
-3.2725425 -1.9924567 -0.13012488 158895
-3.3620336 -2.0233891 -0.15371391 158896
-3.4542582 -2.0552661 -0.1530498 158897
-3.5464299 -2.0871248 -0.15195583 158898
-3.6369529 -2.1184137 -0.1663399 158899
-3.7283146 -2.1499925 -0.17235073 158900
-3.8193188 -2.1814477 -0.18191862 158901
-3.9082661 -2.2121921 -0.21496387 158902
-4.0007749 -2.2441673 -0.20776138 158903
-4.0909739 -2.2753441 -0.22802636 158904
-4.1822038 -2.3068774 -0.23591946 158905
-4.2734656 -2.3384218 -0.24339113 158906
-4.3647575 -2.3699765 -0.25044081 158907
-4.4560776 -2.4015408 -0.25706974 158908
-4.5471902 -2.4330335 -0.26727 158909
-4.6377068 -2.4643202 -0.28902969 158910
-4.7289824 -2.4958692 -0.29839045 158911
-4.8199425 -2.5273092 -0.31532523 158912
-4.9115257 -2.5589645 -0.31985182 158913
-5.004189 -2.5909929 -0.29597703 158914
-5.0954199 -2.6225266 -0.30764738 158915
-5.1866126 -2.6540473 -0.32289776 158916
-5.2784281 -2.6857827 -0.31773362 158917
-5.3701029 -2.7174697 -0.31614345 158918
-5.4614763 -2.7490525 -0.33012983 158919
-5.5529561 -2.7806721 -0.34369192 158920
-5.6445041 -2.8123152 -0.36083546 158921
-5.7362475 -2.8440261 -0.36555365 158922
-5.8280225 -2.8757477 -0.37384909 158923
-5.9198904 -2.9075015 -0.38972151 158924
-6.0117102 -2.9392385 -0.38116822 158925
-6.1038313 -2.9710798 -0.40419078 158926
-6.1960196 -3.0029445 -0.41878805 158927
-6.2882538 -3.0348248 -0.42895758 158928
-6.3805785 -3.0667365 -0.43870142 158929
-6.4732165 -3.0987563 -0.45601368 158930
-6.5654931 -3.1306512 -0.45690325 158931
-6.65837 -3.1627538 -0.47335321 158932
-6.7515564 -3.1949635 -0.49336967 158933
-6.8434997 -3.2267432 -0.48098668 158934
-6.9373031 -3.259166 -0.50812715 158935
-7.0302949 -3.2913082 -0.51485735 158936
-7.12359 -3.3235552 -0.52514786 158937
-7.2157726 -3.3554177 -0.51504749 158938
-7.3099794 -3.38798 -0.53644359 158939
-7.4030051 -3.4201338 -0.5374518 158940
-7.4972391 -3.4527056 -0.55397791 158941
-7.5922594 -3.485549 -0.57803661 158942
-7.6858792 -3.5179081 -0.58171618 158943
-7.7795615 -3.5502889 -0.58496064 158944
-7.8743834 -3.5830638 -0.59971088 158945
-7.9678612 -3.6153738 -0.59809577 158946
-8.0629311 -3.6482346 -0.61195701 158947
-8.1585665 -3.6812904 -0.62934572 158948
-8.254385 -3.7144098 -0.64627814 158949
-8.349947 -3.7474403 -0.65878338 158950
-8.4456587 -3.7805226 -0.67083257 158951
-8.5396204 -3.8130002 -0.66655296 158952
-8.6355581 -3.8461609 -0.67770177 158953
-8.7331581 -3.8798957 -0.70028502 158954
-8.8309984 -3.9137139 -0.72239685 158955
-8.9274569 -3.9470544 -0.73215759 158956
-9.0251646 -3.9808266 -0.74936974 158957
-9.1213579 -4.0140753 -0.75424832 158958
-9.2176514 -4.0473585 -0.75866652 158959
-9.3122292 -4.080049 -0.75078613 158960
-9.4123936 -4.1146708 -0.77797049 158961
-9.5115747 -4.148952 -0.79677796 158962
-9.6135912 -4.1842136 -0.8308574 158963
-9.7106018 -4.2177453 -0.83293116 158964
-9.805645 -4.2505965 -0.82274365 158965
-9.9020805 -4.2839289 -0.81996781 158966
-10.000006 -4.3177762 -0.82459188 158967
-10.102451 -4.3531861 -0.8522855 158968
-10.201452 -4.3874054 -0.85986227 158969
-10.300597 -4.4216743 -0.86695683 158970
-10.403796 -4.457345 -0.89313632 158971
-10.504101 -4.4920149 -0.90315568 158972
-10.606205 -4.527307 -0.92049474 158973
-10.703553 -4.5609546 -0.91391116 158974
-10.804327 -4.5957866 -0.92245704 158975
-10.90958 -4.6321669 -0.94997382 158976
-11.00812 -4.6662269 -0.94583344 158977
-11.079859 -4.6910229 -0.82462877 158978
-11.123355 -4.7060566 -0.58674127 158979
-11.518977 -4.8428025 -0.98762488 158982
-11.620095 -4.8777537 -0.98827028 158983
-11.728267 -4.9151425 -1.0154371 158984
-11.828714 -4.949862 -1.0111972 158985
-11.931285 -4.9853148 -1.014167 158986
-12.039187 -5.0226111 -1.0358548 158987
-12.125236 -5.0523534 -0.97631705 158988
-12.221617 -5.0856667 -0.95478261 158989
-12.307076 -5.1152048 -0.89448327 158990
-12.360194 -5.1335649 -0.72286808 158991
-12.769486 -5.2750349 -0.72090864 158995
-13.002375 -5.3555317 -0.80410624 158997
-13.11529 -5.3945603 -0.83147603 158998
-13.197873 -5.4231048 -0.76365137 158999
-14.226931 -5.7787943 -0.97036457 159008
-14.333568 -5.8156533 -0.9649629 159009
-14.409567 -5.8419218 -0.87724704 159010
-14.525988 -5.8821621 -0.8968578 159011
-14.769866 -5.9664583 -1.2454344 159012
-14.883959 -6.0058942 -1.2520776 159013
-14.995357 -6.0443983 -1.2507236 159014
-15.123134 -6.0885639 -1.2892996 159015
-15.163529 -6.1025262 -1.1102203 159016
-15.297408 -6.1488008 -1.1623971 159017
-15.474443 -6.2099929 -1.316326 159018
-15.596143 -6.2520576 -1.3338022 159019
-15.719718 -6.2947712 -1.3542409 159020
-15.84052 -6.3365254 -1.3666978 159021
-15.960031 -6.3778338 -1.3748477 159022
-16.084583 -6.4208851 -1.3932146 159023
-16.204649 -6.4623857 -1.4000162 159024
-16.331465 -6.5062184 -1.4205986 159025
-16.44717 -6.5462117 -1.4152224 159026
-16.581228 -6.5925484 -1.448783 159027
-16.700743 -6.6338582 -1.4492483 159028
-16.8272 -6.677567 -1.4633771 159029
-16.94039 -6.716691 -1.4481956 159030
-16.995409 -6.7357073 -1.3111815 159031
-17.163561 -6.7938294 -1.4089105 159032
-17.339705 -6.8547125 -1.5197232 159033
-17.469524 -6.8995843 -1.5337294 159034
-17.597908 -6.9439597 -1.543448 159035
-17.737312 -6.9921436 -1.5735776 159036
-17.864578 -7.0361328 -1.5782454 159037
-18.003004 -7.0839791 -1.6032346 159038
-18.143692 -7.1326075 -1.6308917 159039
-19.160908 -7.4842033 -1.6015718 159047
-27.399855 -10.33196 -1.9733706 159098
-28.415586 -10.683043 -2.0307186 159103
-3.1633632 -1.9915352 -0.1140718 159195
-3.2519789 -2.0231152 -0.14204055 159196
-3.3430042 -2.0555539 -0.14974561 159197
-3.4353335 -2.0884571 -0.14510745 159198
-3.5255103 -2.1205935 -0.1599112 159199
-3.6157632 -2.1527569 -0.17430049 159200
-3.7076137 -2.1854897 -0.1723562 159201
-3.7986774 -2.217942 -0.17794362 159202
-3.8880072 -2.2497766 -0.20301947 159203
-3.9788311 -2.2821434 -0.21175107 159204
-4.0690594 -2.3142982 -0.2280325 159205
-4.1596851 -2.3465943 -0.23991439 159206
-4.2509403 -2.3791151 -0.24339761 159207
-4.3421931 -2.4116347 -0.24645786 159208
-4.4324417 -2.4437966 -0.26506063 159209
-4.5232821 -2.4761693 -0.27526203 159210
-4.6135292 -2.5083308 -0.29702514 159211
-4.7045321 -2.5407615 -0.30638885 159212
-4.7954054 -2.5731461 -0.3193261 159213
-4.887537 -2.6059787 -0.30387303 159214
-4.9793701 -2.6387055 -0.2919887 159215
-5.0704141 -2.6711507 -0.29966196 159216
-5.1610327 -2.7034445 -0.32290593 159217
-5.2526422 -2.7360914 -0.31374329 159218
-5.3437371 -2.7685549 -0.32415026 159219
-5.4351139 -2.8011189 -0.32213897 159220
-5.5261502 -2.8335614 -0.34370077 159221
-5.6176805 -2.8661802 -0.32884419 159222
-5.7088284 -2.8986623 -0.36556286 159223
-5.8002958 -2.9312587 -0.37385845 159224
-5.89187 -2.9638929 -0.3937304 159225
-5.983429 -2.9965217 -0.38917968 159226
-6.0752282 -3.0292363 -0.40819916 159227
-6.1673121 -3.0620522 -0.43479371 159228
-6.2587509 -3.0946383 -0.41696969 159229
-6.3511949 -3.1275826 -0.44670779 159230
-6.4432197 -3.1603775 -0.4520238 159231
-6.5359406 -3.1934204 -0.47689986 159232
-6.6280093 -3.2262309 -0.47736341 159233
-6.7205791 -3.2592201 -0.48938382 159234
-6.8132629 -3.2922497 -0.50097632 159235
-6.9056716 -3.3251815 -0.50414264 159236
-6.9979143 -3.3580539 -0.5028882 159237
-7.0922093 -3.3916581 -0.53713882 159238
-7.1843762 -3.4245033 -0.53102571 159239
-7.2775545 -3.4577093 -0.54044574 159240
-7.3719411 -3.4913459 -0.56538904 159241
-7.4648051 -3.5244398 -0.56595546 159242
-7.5573964 -3.5574365 -0.56210142 159243
-7.6516118 -3.591012 -0.57774299 159244
-7.745647 -3.6245234 -0.58895713 159245
-7.8390942 -3.6578252 -0.59175986 159246
-7.9340973 -3.6916814 -0.61004847 159247
-8.0277271 -3.7250485 -0.61197048 159248
-8.1230421 -3.7590158 -0.62935942 159249
-8.2185402 -3.7930486 -0.64629197 159250
-8.3151016 -3.8274603 -0.67071307 159251
-8.4087181 -3.860822 -0.66687691 159252
-8.5056543 -3.8953674 -0.69037974 159253
-8.6008806 -3.9293032 -0.69754869 159254
-8.6972265 -3.9636378 -0.71219289 159255
-8.7927027 -3.9976625 -0.71844959 159256
-8.8898983 -4.0323005 -0.73613006 159257
-8.9878492 -4.0672069 -0.75729662 159258
-9.0831823 -4.101181 -0.75821614 159259
-9.1803417 -4.1358056 -0.7705372 159260
-9.2782679 -4.1707034 -0.78633815 159261
-9.372056 -4.2041268 -0.77404004 159262
-9.4708872 -4.2393475 -0.79284978 159263
-9.5660362 -4.2732558 -0.78753591 159264
-9.6665487 -4.3090754 -0.81326544 159265
-9.7632427 -4.343534 -0.81489164 159266
-9.8593235 -4.3777742 -0.81212527 159267
-9.9618998 -4.4143295 -0.84424478 159268
-10.060423 -4.4494405 -0.85230279 159269
-10.162086 -4.4856696 -0.87556159 159270
-10.261726 -4.5211787 -0.88655925 159271
-10.359981 -4.5561934 -0.88924146 159272
-10.458341 -4.5912461 -0.8914451 159273
-10.557618 -4.6266255 -0.89707756 159274
-10.660342 -4.6632333 -0.91783035 159275
-10.760796 -4.6990318 -0.92637217 159276
-10.857968 -4.7336612 -0.91883898 159277
-10.966567 -4.7723627 -0.96141279 159278
-11.052408 -4.8029537 -0.90237242 159279
-11.101529 -4.8204584 -0.68769282 159280
-11.453086 -4.9457431 -0.91026413 159283
-11.569101 -4.9870877 -0.9728319 159284
-11.676847 -5.025485 -1.0000175 159285
-11.78091 -5.0625701 -1.0112176 159286
-11.882118 -5.0986376 -1.0103364 159287
-11.99068 -5.1373258 -1.0358757 159288
-12.091157 -5.1731329 -1.0301143 159289
-12.176766 -5.2036414 -0.97014987 159290
-12.282575 -5.2413478 -0.98262376 159291
-12.357849 -5.2681732 -0.88741827 159292
-12.724341 -5.3987799 -0.73995793 159296
-13.168737 -5.5571494 -0.8355543 159300
-13.684721 -5.7410302 -0.80632865 159305
-13.889636 -5.8140554 -0.78497481 159307
-14.133647 -5.9010148 -1.165756 159308
-14.252857 -5.9434977 -1.194146 159309
-14.368324 -5.9846468 -1.2107012 159310
-14.478516 -6.0239153 -1.2117598 159311
-14.598737 -6.0667586 -1.238207 159312
-14.70795 -6.1056786 -1.2343498 159313
-14.831687 -6.149775 -1.2668886 159314
-14.939866 -6.1883268 -1.2581297 159315
-15.059897 -6.2311025 -1.2782756 159316
-15.18027 -6.2739997 -1.2977499 159317
-15.291978 -6.3138094 -1.2945287 159318
-15.414442 -6.3574514 -1.3163532 159319
-15.529616 -6.3984962 -1.319207 159320
-15.658895 -6.4445677 -1.3542686 159321
-15.773056 -6.4852505 -1.3521606 159322
-15.896831 -6.5293603 -1.3712406 159323
-16.027308 -6.5758586 -1.4041218 159324
-16.145412 -6.6179481 -1.4072834 159325
-16.275072 -6.6641545 -1.4350747 159326
-16.388817 -6.7046895 -1.4260634 159327
-16.517525 -6.7505569 -1.4488122 159328
-16.63331 -6.7918196 -1.4420991 159329
-16.732464 -6.8271546 -1.3989444 159330
-16.751894 -6.8340788 -1.1873623 159331
-16.832981 -6.8629751 -1.1079731 159332
-16.90501 -6.8886447 -1.0104842 159333
-17.273462 -7.0199504 -1.5197538 159334
-17.406353 -7.0673089 -1.5408463 159335
-17.527271 -7.1104002 -1.5364141 159336
-17.667959 -7.1605372 -1.5700846 159337
-17.79299 -7.2050948 -1.5712426 159338
-17.918255 -7.2497354 -1.5716887 159339
-18.05652 -7.2990088 -1.5959239 159340
-18.05089 -7.2970014 -1.1089604 159342
-18.190107 -7.3466144 -1.1354656 159343
-18.686821 -7.5236282 -1.3477833 159346
-18.751431 -7.5466528 -1.2329255 159347
-27.388462 -10.624632 -2.071744 159399
-28.415737 -10.990721 -1.9319856 159405
-2.9578092 -1.9563757 -0.12427249 159494
-3.142967 -2.0245407 -0.11007097 159496
-3.2330756 -2.0577137 -0.12215625 159497
-3.3223443 -2.0905776 -0.14176624 159498
-3.4121525 -2.1236401 -0.15699105 159499
-3.5032744 -2.157186 -0.15987357 159500
-3.5939789 -2.1905785 -0.16630635 159501
-3.6835551 -2.2235556 -0.1842536 159502
-3.7743251 -2.2569721 -0.18984424 159503
-3.8644075 -2.2901356 -0.20297691 159504
-3.9552195 -2.3235676 -0.20772354 159505
-4.0454063 -2.3567696 -0.22001722 159506
-4.1350636 -2.3897762 -0.23986813 159507
-4.2262568 -2.4233487 -0.23936205 159508
-4.3171496 -2.4568105 -0.24241951 159509
-4.4070425 -2.4899042 -0.26101953 159510
-4.4975247 -2.5232148 -0.2712183 159511
-4.5872002 -2.5562284 -0.29697269 159512
-4.6788592 -2.589972 -0.28636315 159513
-4.7693086 -2.6232705 -0.2992954 159514
-4.8605103 -2.656846 -0.29582551 159515
-4.9518142 -2.6904593 -0.28793302 159516
-5.0422316 -2.7237458 -0.30359918 159517
-5.1324067 -2.7569435 -0.33084226 159518
-5.2238064 -2.7905917 -0.31768081 159519
-5.3146601 -2.8240392 -0.32408789 159520
-5.4055557 -2.857502 -0.33007491 159521
-5.496387 -2.8909409 -0.34363589 159522
-5.5873218 -2.9244182 -0.35677579 159523
-5.6784167 -2.9579544 -0.35749483 159524
-5.7694883 -2.991482 -0.38979116 159525
-5.8606777 -3.025053 -0.37766108 159526
-5.9519749 -3.0586634 -0.39310747 159527
-6.0433073 -3.0922871 -0.40012801 159528
-6.1347628 -3.1259561 -0.41072667 159529
-6.2263103 -3.1596587 -0.42089429 159530
-6.3184223 -3.1935694 -0.45063058 159531
-6.410006 -3.2272856 -0.45194647 159532
-6.5023785 -3.261292 -0.47682124 159533
-6.5939569 -3.2950063 -0.47328421 159534
-6.6863222 -3.32901 -0.48930266 159535
-6.7784805 -3.3629377 -0.49689758 159536
-6.8712978 -3.3971078 -0.51604491 159537
-6.9626136 -3.4307253 -0.50280327 159538
-7.0556498 -3.4649763 -0.52108228 159539
-7.1486158 -3.4992013 -0.53493065 159540
-7.2393913 -3.5326197 -0.51242477 159541
-7.3352337 -3.5679038 -0.56529903 159542
-7.4277477 -3.6019623 -0.56586421 159543
-7.520298 -3.6360343 -0.5659954 159544
-7.6144996 -3.6707141 -0.58561927 159545
-7.7078733 -3.7050893 -0.59284562 159546
-7.7995586 -3.7388427 -0.57972032 159547
-7.8960204 -3.7743547 -0.61791199 159548
-7.9920545 -3.8097093 -0.6476776 159549
-8.085535 -3.8441238 -0.64914256 159550
-8.178648 -3.8784025 -0.6461904 159551
-8.2726555 -3.9130111 -0.6507476 159552
-8.3690176 -3.9484866 -0.6747126 159553
-8.4642124 -3.983532 -0.68630528 159554
-8.559063 -4.0184507 -0.69347322 159555
-8.6520119 -4.0526695 -0.68433648 159556
-8.7522078 -4.0895562 -0.73022592 159557
-8.8474798 -4.12463 -0.73601937 159558
-8.9439583 -4.1601481 -0.749273 159559
-9.0389004 -4.1951008 -0.75019425 159560
-9.1333265 -4.2298632 -0.74671465 159561
-9.2307863 -4.2657423 -0.76252937 159562
-9.3302889 -4.3023739 -0.78970701 159563
-9.424386 -4.3370152 -0.78090328 159564
-9.5236683 -4.3735657 -0.80317575 159565
-9.617219 -4.4080057 -0.78952295 159566
-9.7202625 -4.4459405 -0.83050436 159567
-9.81744 -4.4817162 -0.83558387 159568
-9.9111681 -4.516222 -0.8205564 159569
-10.0136 -4.5539317 -0.85217613 159570
-10.113389 -4.5906687 -0.8675915 159571
-10.209579 -4.6260805 -0.86292797 159572
