# .PCD v0.7 - Point Cloud Data file format
VERSION 0.7
FIELDS x y z intensity
SIZE 4 4 4 4
TYPE F F F F
COUNT 1 1 1 1
WIDTH 1325
HEIGHT 1
VIEWPOINT 0 0 0 1 0 0 0
POINTS 1325
DATA ascii
23.051357 7.5580735 0.30086049 52024
23.067764 7.5628495 0.47178143 52025
23.083075 7.567306 0.64243555 52026
23.148584 7.5863743 1.3042538 52030
23.163609 7.5907474 1.4675692 52031
23.249372 7.6157117 2.2508178 52036
23.24785 7.6152678 2.4242904 52037
23.26894 7.6214066 2.5711915 52038
23.283836 7.6257429 2.7237065 52039
23.300451 7.630579 2.873101 52040
23.318825 7.6359272 3.0194046 52041
23.341679 7.6425796 3.1597912 52042
23.3556 7.6466322 3.308568 52043
23.374033 7.6519971 3.4514403 52044
23.388884 7.6563201 3.5969467 52045
23.402855 7.6603866 3.742234 52046
23.407713 7.6618004 3.8956933 52047
23.425404 7.6669497 4.0349174 52048
23.439499 7.6710525 4.1767316 52049
23.484594 7.6841788 4.7445116 52053
23.505753 7.6903377 4.8743501 52054
23.503471 7.6896729 5.0256286 52055
23.540129 7.7003436 5.1389804 52056
23.553308 7.7041798 5.2737117 52057
23.548479 7.7027736 5.4241915 52058
23.571541 7.709487 5.5478554 52059
23.588123 7.714314 5.6766782 52060
23.580744 7.7121654 5.8262887 52061
23.619078 7.7233238 5.9338288 52062
23.456276 7.6759315 6.3579397 52064
23.609915 7.7206554 6.3618789 52065
23.752026 7.7620239 6.3771281 52066
23.793444 7.7740808 6.4796968 52067
22.963591 7.7591729 -0.46114182 52386
22.977444 7.76334 -0.27965334 52387
22.997393 7.7693419 -0.1077452 52388
23.013796 7.7742767 0.06699945 52389
23.038889 7.781826 0.22918756 52390
23.050623 7.785356 0.40648386 52391
23.078566 7.7937632 0.56213242 52392
23.150389 7.8153706 1.4007149 52397
23.229507 7.8391728 2.1940465 52402
23.243933 7.8435125 2.3502207 52403
23.257387 7.8475609 2.5061469 52404
23.280443 7.8544974 2.6502345 52405
23.278749 7.8539867 2.8201225 52406
23.307957 7.8627744 2.9551539 52407
23.320309 7.8664904 3.1072495 52408
23.337105 7.8715439 3.2533963 52409
23.361122 7.8787694 3.3908288 52410
23.359911 7.8784046 3.5535367 52411
23.379477 7.8842907 3.6933866 52412
23.392738 7.8882809 3.8386598 52413
23.410622 7.893661 3.9781334 52414
23.424917 7.8979616 4.1201978 52415
23.446678 7.9045091 4.2537651 52416
23.476448 7.9134645 4.6835451 52419
23.483719 7.9156518 4.8272138 52420
23.50993 7.9235373 4.9517384 52421
23.507042 7.9226685 5.1030183 52422
23.528889 7.9292412 5.2299032 52423
23.52998 7.9295692 5.3752747 52424
23.556061 7.9374156 5.4965272 52425
23.567045 7.9407206 5.6308622 52426
23.57725 7.9437904 5.7649832 52427
23.601204 7.9509974 5.8858566 52428
23.47513 7.913064 6.4172621 52431
23.628428 7.9591866 6.4219995 52432
23.784981 8.0062885 6.4253006 52433
22.93947 7.9906216 -0.52963549 52750
22.960802 7.9972587 -0.3572318 52751
22.971342 8.0005388 -0.17269008 52752
22.997715 8.0087442 -0.010055793 52753
23.005934 8.011302 0.17389524 52754
23.025251 8.017312 0.34220189 52755
23.048445 8.0245295 0.50416905 52756
23.06068 8.0283356 0.67808503 52757
23.128906 8.0495644 1.3347967 52761
23.143379 8.0540676 1.4983503 52762
23.223852 8.0791063 2.2857699 52767
23.22706 8.0801039 2.4535818 52768
23.250271 8.087326 2.5978711 52769
23.259388 8.0901632 2.7564242 52770
23.2941 8.1009636 2.8859596 52771
23.298698 8.1023951 3.046916 52772
23.315706 8.107686 3.193305 52773
23.326441 8.1110268 3.3451617 52774
23.35248 8.1191282 3.4798138 52775
23.364151 8.1227598 3.6284053 52776
23.350367 8.1184702 3.8019426 52777
23.384794 8.1291828 3.9248452 52778
23.40753 8.1362572 4.0588102 52779
23.421202 8.1405106 4.200923 52780
23.481497 8.1592712 4.7535992 52784
23.496658 8.1639891 4.889246 52785
23.502539 8.1658182 5.0327549 52786
23.516092 8.1700363 5.1679773 52787
23.523153 8.1722326 5.3083162 52788
23.54084 8.1777363 5.4378166 52789
23.552042 8.181222 5.5724263 52790
23.579784 8.1898537 5.6911049 52791
23.583696 8.1910706 5.830575 52792
23.514088 8.1694107 6.0345941 52793
23.588247 8.1924849 6.3882051 52796
22.939651 8.2450886 -0.43735659 53113
22.952913 8.2493601 -0.2556335 53114
22.98683 8.2602863 -0.10196017 53115
23.002731 8.2654085 0.073098145 53116
23.005253 8.2662201 0.26318282 53117
23.021313 8.2713928 0.43457645 53118
23.048666 8.2802048 0.59051424 53119
23.127859 8.3057146 1.4183406 53124
23.186348 8.3245535 2.2335749 53129
23.213284 8.33323 2.3754044 53130
23.231499 8.339098 2.5257981 53131
23.238258 8.3412752 2.6875243 53132
23.246658 8.3439808 2.8460684 53133
23.280684 8.3549414 2.9757102 53134
23.295261 8.3596373 3.1252401 53135
23.300882 8.3614473 3.283051 53136
23.332493 8.3716307 3.4123094 53137
23.336287 8.3728523 3.5696211 53138
23.352711 8.3781433 3.7126155 53139
23.365555 8.3822803 3.8581953 53140
23.383015 8.3879042 3.9979949 53141
23.399649 8.3932629 4.13761 53142
23.446814 8.4084549 4.7049546 53146
23.467754 8.4152012 4.8354216 53147
23.476665 8.4180708 4.976491 53148
23.481913 8.4197617 5.1199865 53149
23.486309 8.4211769 5.263206 53150
23.506989 8.4278383 5.3902674 53151
23.526953 8.4342699 5.5171986 53152
23.540451 8.4386177 5.6492372 53153
23.550306 8.4417915 5.7836905 53154
23.568083 8.4475183 5.9101443 53155
23.561487 8.4453926 6.3371205 53158
23.714485 8.4946795 6.3433404 53159
22.913334 8.4789057 -0.50615126 53474
22.934057 8.4857988 -0.33346668 53475
22.951263 8.4915209 -0.15793967 53476
22.972212 8.4984875 0.011176193 53477
22.982313 8.5018473 0.19230321 53478
23.001074 8.5080872 0.36090863 53479
23.028648 8.5172577 0.5171169 53480
23.023001 8.515379 0.71250933 53481
23.109112 8.5440178 1.3463193 53485
23.18705 8.5699387 2.1425171 53490
23.209068 8.577261 2.2905362 53491
23.214499 8.5790672 2.4557636 53492
23.232038 8.5849009 2.6062391 53493
23.243389 8.5886755 2.7622488 53494
23.264397 8.5956621 2.9065473 53495
23.279215 8.6005907 3.0563707 53496
23.303837 8.6087799 3.1946189 53497
23.303461 8.608655 3.3581512 53498
23.315569 8.6126804 3.507262 53499
23.315933 8.6128016 3.6673265 53500
23.356152 8.6261778 3.7852364 53501
23.360188 8.6275206 3.9392343 53502
23.371525 8.6312904 4.0846376 53503
23.381998 8.6347742 4.2297988 53504
23.446114 8.6560974 4.7782617 53508
23.474924 8.6656799 4.9008069 53509
23.471996 8.6647053 5.0526824 53510
23.482328 8.6681414 5.1909084 53511
23.497549 8.6732035 5.3236136 53512
23.5063 8.6761141 5.4614053 53513
23.53146 8.6844816 5.58324 53514
23.515646 8.6792221 5.7414846 53515
23.542212 8.6880569 5.8603687 53516
23.385408 8.6359034 6.1417317 53517
23.451525 8.6578932 6.3621531 53519
23.559959 8.6939592 6.406333 53520
23.694857 8.7388258 6.4284749 53521
22.893101 8.7404327 -0.59626323 53835
22.916517 8.7484922 -0.4263536 53836
22.929228 8.7528658 -0.24432695 53837
22.948034 8.7593393 -0.071827851 53838
22.960878 8.7637596 0.10654215 53839
22.989719 8.7736855 0.26326436 53840
23.002836 8.7782001 0.43806326 53841
23.019791 8.7840347 0.60651428 53842
23.106504 8.813879 1.4240311 53847
23.175753 8.8377113 2.2264578 53852
23.197073 8.8450489 2.3745639 53853
23.201792 8.846673 2.539803 53854
23.22127 8.8533764 2.6874712 53855
23.234581 8.8579578 2.8406703 53856
23.236345 8.8585644 3.0050189 53857
23.250423 8.86341 3.1548357 53858
23.276997 8.8725557 3.2902985 53859
23.29203 8.8777304 3.4368937 53860
23.311596 8.8844633 3.5776725 53861
23.319485 8.8871784 3.7294261 53862
23.334635 8.8923922 3.8725781 53863
23.351679 8.8982582 4.0127583 53864
23.362411 8.9019527 4.1582484 53865
23.364008 8.9025011 4.3117051 53866
23.420027 8.9217815 4.865829 53870
23.442583 8.9295444 4.9938221 53871
23.450294 8.9321985 5.1349945 53872
23.462856 8.9365215 5.2706213 53873
23.466101 8.9376383 5.4139395 53874
23.497084 8.9483013 5.5307717 53875
23.501623 8.9498634 5.6710343 53876
23.522627 8.9570932 5.7954631 53877
23.525604 8.9581175 5.9352551 53878
23.485855 8.9444351 6.3910227 53881
23.711245 9.0220108 6.3349285 53882
23.704954 9.019845 6.4791312 53883
22.893679 8.9828835 -0.50407255 54197
22.909067 8.9883404 -0.32485306 54198
22.918486 8.9916801 -0.13977645 54199
22.946133 9.0014849 0.020475853 54200
22.960592 9.0066128 0.19580954 54201
22.973946 9.0113478 0.37085539 54202
22.993587 9.0183134 0.53653157 54203
23.00972 9.0240345 0.70498919 54204
23.151875 9.0744448 2.1591613 54213
23.160408 9.0774708 2.3220315 54214
23.186213 9.0866222 2.4644036 54215
23.198071 9.0908279 2.6210063 54216
23.206341 9.0937605 2.7802086 54217
23.245396 9.1076107 2.9049284 54218
23.241236 9.1061354 3.0750315 54219
23.249365 9.1090174 3.230608 54220
23.267275 9.1153688 3.3746529 54221
23.289726 9.1233311 3.5129049 54222
23.305967 9.1290903 3.6565838 54223
23.318651 9.1335888 3.8028367 54224
23.344109 9.1426163 3.9350455 54225
23.352388 9.1455526 4.0836396 54226
23.354284 9.146224 4.2374396 54227
23.408541 9.1654654 4.7956328 54231
23.431311 9.1735401 4.9239631 54232
23.430838 9.1733713 5.073451 54233
23.44644 9.1789045 5.2067313 54234
23.475475 9.1892014 5.3266678 54235
23.489624 9.1942196 5.4596529 54236
23.488722 9.1938992 5.605485 54237
23.515667 9.203455 5.7250581 54238
23.530447 9.2086964 5.8548903 54239
23.491816 9.1949949 6.311904 54242
23.634953 9.2457571 6.3269649 54243
23.707912 9.2716322 6.4033613 54244
22.875874 9.2202263 -0.58884239 54558
22.886766 9.2242031 -0.40314597 54559
22.913315 9.2338972 -0.23927929 54560
22.931595 9.240572 -0.066413805 54561
22.941492 9.2441864 0.11534536 54562
22.964903 9.2527342 0.27854988 54563
22.992222 9.2627106 0.43549839 54564
23.001301 9.2660255 0.61339331 54565
23.014221 9.2707424 0.78495264 54566
23.057737 9.2866325 1.4652842 54570
23.144758 9.318408 2.2456806 54575
23.160378 9.324111 2.3999224 54576
23.182911 9.3323393 2.5453122 54577
23.196712 9.3373785 2.699121 54578
23.209591 9.342082 2.8526857 54579
23.218901 9.3454809 3.0088391 54580
23.23525 9.3514509 3.1562402 54581
23.250729 9.3571033 3.3034327 54582
23.262655 9.3614578 3.4532089 54583
23.271002 9.3645048 3.6055241 54584
23.289263 9.3711729 3.7464666 54585
23.314861 9.3805208 3.8789425 54586
23.331528 9.3866062 4.0195565 54587
23.336416 9.3883915 4.1709237 54588
23.351414 9.3938675 4.3111005 54589
23.389355 9.4077215 4.8831115 54593
23.428345 9.4219589 4.9955812 54594
23.438574 9.4256945 5.1345458 54595
23.439522 9.4260397 5.2811794 54596
23.468002 9.4364395 5.4013052 54597
23.47304 9.4382792 5.5422287 54598
23.480127 9.4408665 5.6802883 54599
23.492168 9.4452629 5.8129406 54600
23.466002 9.4357071 5.9787579 54601
23.396109 9.4101849 6.3214283 54603
23.509604 9.4516287 6.3617215 54604
23.628954 9.4952126 6.3977475 54605
22.842846 9.4695578 -0.6627214 54919
22.868301 9.4791403 -0.49523956 54920
22.885525 9.4856243 -0.31873792 54921
22.882353 9.4844294 -0.11802643 54922
22.914227 9.4964294 0.036498569 54923
22.932989 9.5034924 0.20608662 54924
22.945808 9.5083179 0.38148007 54925
22.957525 9.5127287 0.5565787 54926
22.987928 9.5241747 0.70735002 54927
23.123293 9.5751324 2.1680658 54936
23.141758 9.5820827 2.3197618 54937
23.156715 9.5877142 2.4741244 54938
23.165518 9.5910273 2.6339722 54939
23.194378 9.6018925 2.7707427 54940
23.196058 9.6025248 2.9357753 54941
23.21529 9.6097651 3.0806885 54942
23.228352 9.6146812 3.231041 54943
23.256571 9.6253052 3.3643608 54944
23.254496 9.6245232 3.5282359 54945
23.281092 9.6345358 3.6612232 54946
23.290691 9.6381493 3.8106747 54947
23.296688 9.6404066 3.9626143 54948
23.326363 9.6515779 4.0896406 54949
23.327923 9.6521654 4.2438288 54950
23.375149 9.6699429 4.8091722 54954
23.403109 9.6804686 4.9326587 54955
23.413551 9.6843996 5.0719514 54956
23.411924 9.6837873 5.2215476 54957
23.437714 9.6934958 5.3446112 54958
23.437279 9.6933317 5.4910512 54959
23.4702 9.7057247 5.6060562 54960
23.465328 9.7038908 5.7545853 54961
23.488302 9.7125397 5.8770971 54962
23.390734 9.675806 6.3854823 54965
23.675608 9.7830544 6.2782254 54966
22.846689 9.715271 -0.58033568 55280
22.861805 9.7211208 -0.40044945 55281
22.866179 9.7228136 -0.20861648 55282
22.888647 9.7315092 -0.041557107 55283
22.92465 9.7454424 0.10706697 55284
22.935381 9.7495956 0.28586397 55285
22.962154 9.7599573 0.44324139 55286
22.965803 9.7613688 0.62748349 55287
22.990576 9.770956 0.78442365 55288
23.100967 9.8136787 2.0939655 55296
23.12225 9.8219156 2.2430913 55297
23.134869 9.8267984 2.4006548 55298
23.156973 9.8353529 2.546519 55299
23.165131 9.8385105 2.7064557 55300
23.18548 9.846386 2.851918 55301
23.199699 9.8518887 3.0028503 55302
23.218336 9.8591013 3.1479268 55303
23.217476 9.8587675 3.3124087 55304
23.24238 9.8684063 3.4486592 55305
23.250391 9.8715067 3.6014276 55306
23.270992 9.8794794 3.7401118 55307
23.279964 9.8829517 3.8896325 55308
23.307108 9.8934565 4.0197387 55309
23.317141 9.8973389 4.1660914 55310
23.331808 9.9030161 4.3067741 55311
23.379147 9.9213352 5.020278 55316
23.388969 9.9251375 5.159606 55317
23.412098 9.9340878 5.2856078 55318
23.409073 9.9329166 5.4349561 55319
23.42506 9.9391041 5.5658112 55320
23.440325 9.9450121 5.6964984 55321
23.466318 9.9550714 5.8167524 55322
23.339453 9.9059706 6.0722213 55323
23.369812 9.9177189 6.3261018 55325
23.561039 9.9917307 6.2995701 55326
23.68873 10.041151 6.3294959 55327
22.828558 9.9696875 -0.68245029 55640
22.839268 9.9739532 -0.49605522 55641
22.853586 9.9796562 -0.31611145 55642
22.854752 9.9801197 -0.12122197 55643
22.895779 9.9964619 0.021620262 55644
22.918966 10.005698 0.18560743 55645
22.93383 10.011619 0.35843495 55646
22.950083 10.018092 0.52798414 55647
22.96283 10.023169 0.70026249 55648
23.099598 10.077645 2.1590269 55657
23.109922 10.081758 2.3198144 55658
23.132267 10.090657 2.4660189 55659
23.14855 10.097143 2.6177518 55660
23.158697 10.101185 2.7749393 55661
23.162645 10.102757 2.9374979 55662
23.199978 10.117628 3.0631826 55663
23.194157 10.115309 3.2336326 55664
23.216619 10.124257 3.3730187 55665
23.235615 10.131823 3.5150325 55666
23.248421 10.136924 3.6623898 55667
23.252274 10.138457 3.8177619 55668
23.271473 10.146105 3.9564044 55669
23.29261 10.154525 4.0921583 55670
23.299324 10.157198 4.2413187 55671
23.329865 10.169363 4.3659229 55672
23.403751 10.198793 5.3485489 55679
23.425686 10.20753 5.4746556 55680
23.441261 10.213734 5.6058102 55681
23.447565 10.216245 5.7444925 55682
23.453091 10.218445 5.8829222 55683
23.424519 10.207063 6.3318114 55686
23.571901 10.265771 6.344069 55687
22.861439 10.241112 -0.058273353 56004
22.887283 10.251694 0.10298133 56005
22.899992 10.256898 0.27913254 56006
22.926285 10.267664 0.43696743 56007
22.934437 10.271002 0.61557555 56008
22.961235 10.281975 0.77001137 56009
23.086538 10.333282 2.0628943 56017
23.107515 10.341871 2.2125907 56018
23.10951 10.342688 2.3821266 56019
23.131266 10.351596 2.5285184 56020
23.149567 10.35909 2.677578 56021
23.167006 10.36623 2.8264365 56022
23.167778 10.366546 2.9919617 56023
23.172846 10.368621 3.1515284 56024
23.208832 10.383356 3.277344 56025
23.214806 10.385802 3.4336514 56026
23.233248 10.393353 3.5758522 56027
23.245502 10.398372 3.7233703 56028
23.26231 10.405253 3.86518 56029
23.278313 10.411806 4.0068002 56030
23.285343 10.414685 4.1563568 56031
23.302444 10.421687 4.2948456 56032
23.332552 10.434014 4.8760686 56036
23.354031 10.442809 5.0055737 56037
23.369211 10.449025 5.1401949 56038
23.397688 10.460686 5.2616053 56039
23.394518 10.459388 5.4114838 56040
23.413118 10.467004 5.5403771 56041
23.431023 10.474335 5.6691289 56042
23.445379 10.480213 5.8002892 56043
23.298853 10.420212 6.0734696 56044
23.573727 10.532769 6.2556686 56047
22.813662 10.469012 -0.71404213 56361
22.84063 10.480343 -0.54861599 56362
22.864212 10.490252 -0.38031986 56363
22.850786 10.48461 -0.16666961 56364
22.862501 10.489532 0.01313974 56365
22.894918 10.503153 0.16550368 56366
22.916702 10.512306 0.32976776 56367
22.932602 10.518987 0.49980405 56368
22.932711 10.519032 0.68745804 56369
22.956364 10.528971 0.84501821 56370
23.081413 10.581511 2.1329136 56378
23.096613 10.587898 2.2884753 56379
23.105721 10.591724 2.4494996 56380
23.116474 10.596242 2.6073968 56381
23.128904 10.601465 2.7621996 56382
23.15617 10.612921 2.8998797 56383
23.158957 10.614092 3.062644 56384
23.189875 10.627083 3.1944163 56385
23.206791 10.634191 3.3399911 56386
23.204199 10.633101 3.5046985 56387
23.224733 10.641729 3.6442854 56388
23.249866 10.652289 3.7782402 56389
23.247253 10.651191 3.9393194 56390
23.265381 10.658807 4.0783401 56391
23.293623 10.670674 4.2063956 56392
23.288372 10.668468 4.3665967 56393
23.251101 10.652804 5.3063884 56399
23.374125 10.704497 5.3393412 56400
23.404219 10.717142 5.4582725 56401
23.402584 10.716455 5.605402 56402
23.417147 10.722573 5.7368827 56403
23.430992 10.728392 5.8681889 56404
23.450993 10.736794 6.2760096 56407
23.580416 10.791176 6.3046021 56408
22.781971 10.731247 -0.81339753 56721
22.787943 10.733827 -0.62007213 56722
22.814089 10.745125 -0.45456624 56723
22.827299 10.750833 -0.27405724 56724
22.8442 10.758135 -0.099904247 56725
22.857628 10.763937 0.077000782 56726
22.874821 10.771366 0.24760485 56727
22.881235 10.774137 0.42991963 56728
22.90122 10.782773 0.59399915 56729
22.922686 10.792048 0.75488901 56730
22.93578 10.797706 0.92444491 56731
23.047506 10.845982 2.0485122 56738
23.065546 10.853777 2.2015662 56739
23.077541 10.85896 2.3601077 56740
23.101551 10.869334 2.5042026 56741
23.109144 10.872616 2.6650963 56742
23.118399 10.876614 2.8228791 56743
23.129353 10.881347 2.9775805 56744
23.149944 10.890244 3.1208739 56745
23.164436 10.896506 3.2695472 56746
23.186047 10.905845 3.4097142 56747
23.21221 10.917149 3.5442328 56748
23.221565 10.921191 3.6950631 56749
23.235434 10.927184 3.8401821 56750
23.243078 10.930488 3.9905059 56751
23.274263 10.943962 4.1162753 56752
23.2694 10.94186 4.2769017 56753
23.340265 10.97248 5.1202421 56759
23.348875 10.976201 5.2604513 56760
23.365126 10.983223 5.3926797 56761
23.360947 10.981416 5.5427103 56762
23.378521 10.989011 5.6719594 56763
23.403917 10.999984 5.7934432 56764
23.263559 10.939333 6.0613713 56765
23.292841 10.951984 6.3173933 56767
23.444557 11.017544 6.3258643 56768
23.576336 11.074488 6.3527832 56769
22.81628 11.003151 -0.789469 57082
22.840631 11.013944 -0.62029725 57083
22.825903 11.007415 -0.40272224 57084
22.871943 11.027821 -0.2644091 57085
22.873957 11.028713 -0.071812145 57086
22.889263 11.035496 0.1023564 57087
22.87924 11.031054 0.3061696 57088
22.8972 11.039013 0.47370633 57089
22.916609 11.047615 0.63802958 57090
22.922729 11.050327 0.81691289 57091
23.047695 11.105712 2.1060598 57099
23.060024 11.111176 2.2650042 57100
23.084316 11.121943 2.4095042 57101
23.076719 11.118575 2.5877495 57102
23.096651 11.12741 2.7346177 57103
23.123585 11.139347 2.8729088 57104
23.134016 11.14397 3.0278108 57105
23.151457 11.151699 3.1741235 57106
23.170715 11.160235 3.3174801 57107
23.175888 11.162528 3.4744065 57108
23.190821 11.169146 3.6200819 57109
23.207611 11.176587 3.7628207 57110
23.223604 11.183675 3.9053705 57111
23.244198 11.192802 4.0423284 57112
23.253204 11.196794 4.1898789 57113
23.272259 11.205239 4.3264832 57114
23.293297 11.214563 4.4602733 57115
23.170778 11.160259 4.882782 57117
23.296804 11.216117 4.9132004 57118
23.320295 11.226528 5.0409422 57119
23.331972 11.231704 5.1789546 57120
23.356867 11.242737 5.3038554 57121
23.367081 11.247264 5.4415078 57122
23.376545 11.251459 5.5789371 57123
23.379606 11.252814 5.7212229 57124
23.404558 11.263874 5.8430142 57125
23.41836 11.26999 6.2576494 57128
23.541245 11.324455 6.292346 57129
23.655542 11.375114 6.3352914 57130
22.805851 11.25084 -0.70450008 57443
22.817575 11.256164 -0.52002376 57444
22.842459 11.267465 -0.35402635 57445
22.844818 11.268535 -0.16108814 57446
22.877249 11.283262 -0.007595046 57447
22.836275 11.264654 0.23553826 57448
22.888449 11.288347 0.36163056 57449
22.903337 11.295109 0.53233582 57450
22.895132 11.291382 0.7293818 57451
22.927597 11.306125 0.87587363 57452
23.02994 11.352599 2.0128286 57459
23.040031 11.357182 2.175025 57460
23.054308 11.363665 2.3312643 57461
23.070263 11.37091 2.4844377 57462
23.087929 11.378932 2.6345787 57463
23.086535 11.378298 2.8041089 57464
23.125935 11.39619 2.9286692 57465
23.133198 11.399488 3.0865331 57466
23.157993 11.410748 3.2247701 57467
23.155575 11.40965 3.3903749 57468
23.181404 11.421379 3.5254974 57469
23.193163 11.426719 3.6741319 57470
23.193371 11.426813 3.8333695 57471
23.219545 11.438699 3.9652808 57472
23.245014 11.450266 4.097096 57473
23.242676 11.449203 4.2555308 57474
23.269352 11.461316 4.3843551 57475
23.314005 11.481593 4.9509101 57479
23.320442 11.484517 5.0945749 57480
23.326086 11.48708 5.2379756 57481
23.342108 11.494355 5.370842 57482
23.371437 11.507674 5.490777 57483
23.386087 11.514327 5.6233754 57484
23.385912 11.514247 5.7684288 57485
23.243237 11.449453 6.0387959 57486
23.320627 11.484598 6.2538786 57488
23.434443 11.536284 6.2960234 57489
23.545391 11.586669 6.3414178 57490
22.76829 11.517346 -0.8042711 57804
22.803936 11.533972 -0.64979798 57805
22.829214 11.545761 -0.48330927 57806
22.808243 11.535979 -0.25973034 57807
22.860069 11.560151 -0.12988456 57808
22.870295 11.564919 0.050895851 57809
22.840736 11.551133 0.27903426 57810
22.853453 11.557063 0.45303464 57811
22.874893 11.567062 0.61491704 57812
22.90275 11.580055 0.76776099 57813
22.912481 11.584594 0.94099444 57814
23.012924 11.631437 2.0761731 57821
23.019854 11.634668 2.241353 57822
23.041224 11.644634 2.3892736 57823
23.056604 11.651808 2.5426469 57824
23.065933 11.656158 2.7013931 57825
23.087349 11.666146 2.8459237 57826
23.100128 11.672107 2.9986145 57827
23.122532 11.682555 3.1400177 57828
23.144157 11.692641 3.2812748 57829
23.149141 11.694965 3.438797 57830
23.147913 11.694392 3.6014564 57831
23.175062 11.707054 3.7339325 57832
23.196154 11.716891 3.8717165 57833
23.208437 11.722619 4.0174093 57834
23.228006 11.731746 4.1548576 57835
23.235994 11.735472 4.3027887 57836
23.251314 11.742617 4.4425192 57837
23.291195 11.761215 5.0124583 57841
23.291594 11.7614 5.1614461 57842
23.316185 11.772869 5.2870145 57843
23.326172 11.777527 5.4252639 57844
23.346617 11.787062 5.5531325 57845
23.360769 11.793663 5.685935 57846
23.37422 11.799936 5.8185601 57847
23.302048 11.766273 6.309247 57850
23.478212 11.848436 6.2980504 57851
22.820618 11.804014 -0.81108445 58168
22.836979 11.81183 -0.63188744 58169
22.866499 11.825932 -0.4710573 58170
22.849792 11.817951 -0.25331238 58171
22.886814 11.835636 -0.10496843 58172
22.79059 11.789667 0.20721708 58173
22.8374 11.81203 0.33993915 58174
22.856764 11.821279 0.50522351 58175
22.870275 11.827733 0.67617238 58176
22.89505 11.839568 0.83217561 58177
22.896742 11.840376 1.0143028 58178
23.015511 11.897112 2.124764 58185
23.032131 11.905051 2.2788389 58186
23.040178 11.908895 2.4411302 58187
23.062757 11.919682 2.5863268 58188
23.074177 11.925136 2.7425165 58189
23.087305 11.931408 2.8956726 58190
23.104794 11.939761 3.0430641 58191
23.108355 11.941463 3.204005 58192
23.132048 11.952781 3.34273 58193
23.149708 11.961217 3.4867716 58194
23.171881 11.971809 3.6252084 58195
23.169325 11.970588 3.787786 58196
23.187235 11.979143 3.928509 58197
23.209753 11.989901 4.063714 58198
23.220762 11.995159 4.2094288 58199
23.228262 11.998741 4.3575525 58200
23.251242 12.009719 4.489615 58201
23.283812 12.025276 5.0656939 58205
23.297598 12.031862 5.2020221 58206
23.307877 12.036772 5.340714 58207
23.32856 12.046654 5.469027 58208
23.337387 12.05087 5.607327 58209
23.359514 12.06144 5.7328358 58210
23.240082 12.004384 5.9831886 58211
23.305689 12.035726 6.2100863 58213
23.433065 12.096576 6.2412181 58214
23.574825 12.164296 6.2610645 58215
22.804451 12.077476 -0.73875445 58531
22.801188 12.075876 -0.5353058 58532
22.815651 12.082961 -0.35634771 58533
22.845743 12.097701 -0.19862053 58534
22.874935 12.112001 -0.041028176 58535
22.816544 12.083397 0.22328088 58536
22.836266 12.093057 0.3890357 58537
22.847731 12.098673 0.5634023 58538
22.872824 12.110965 0.71986991 58539
22.89703 12.122822 0.87617105 58540
22.905556 12.126998 1.0497562 58541
22.993608 12.17013 2.0190775 58547
23.008017 12.177188 2.1764448 58548
23.036863 12.191318 2.3167045 58549
23.041855 12.193762 2.4820573 58550
23.04847 12.197002 2.6442957 58551
23.064507 12.204858 2.7951303 58552
23.077103 12.211028 2.9485133 58553
23.08884 12.216777 3.1016521 58554
23.110201 12.227241 3.2435973 58555
23.125528 12.234749 3.3908355 58556
23.134762 12.239271 3.5432873 58557
23.161711 12.252472 3.676589 58558
23.179968 12.261415 3.817857 58559
23.181421 12.262126 3.9749815 58560
23.192722 12.267663 4.121139 58561
23.192446 12.267527 4.2776451 58562
23.229153 12.285507 4.3969531 58563
23.262993 12.302083 4.9749413 58567
23.288086 12.314375 5.1014891 58568
23.28488 12.312803 5.2534828 58569
23.314133 12.327134 5.3746514 58570
23.323284 12.331615 5.5134654 58571
23.331696 12.335736 5.652051 58572
23.344976 12.342242 5.7854061 58573
23.272934 12.30695 6.2777491 58576
23.536171 12.435899 6.1923356 58577
22.794134 12.339575 -0.670892 58893
22.823231 12.354163 -0.50943613 58894
22.832417 12.358768 -0.32419577 58895
22.850035 12.367602 -0.15121424 58896
22.806721 12.345884 0.095717207 58897
22.805172 12.345107 0.28858492 58898
22.83392 12.35952 0.44273829 58899
22.832621 12.358869 0.63195145 58900
22.866829 12.376019 0.77692753 58901
22.890427 12.387852 0.93346494 58902
22.993013 12.439286 2.0663874 58909
22.999266 12.44242 2.2324312 58910
23.00967 12.447637 2.3925586 58911
23.034559 12.460116 2.5356922 58912
23.040642 12.463165 2.6981118 58913
23.043211 12.464453 2.8629806 58914
23.078606 12.4822 2.9917729 58915
23.100296 12.493074 3.1342261 58916
23.113361 12.499625 3.2846997 58917
23.128225 12.507077 3.4322288 58918
23.129078 12.507504 3.5930347 58919
23.166132 12.526083 3.7159097 58920
23.162653 12.524338 3.8788717 58921
23.166264 12.526148 4.033473 58922
23.193146 12.539627 4.1639552 58923
23.205896 12.54602 4.307519 58924
23.201656 12.543893 4.4665837 58925
23.26354 12.574921 5.0168762 58929
23.271688 12.579005 5.159101 58930
23.270784 12.578551 5.3087001 58931
23.302334 12.59437 5.4276576 58932
23.319386 12.60292 5.5591693 58933
23.324591 12.605529 5.7005243 58934
23.256187 12.571232 5.9062262 58935
23.405817 12.646254 6.2046242 58938
23.535309 12.711181 6.2356095 58939
22.722712 12.574032 -0.7282638 59254
22.749542 12.587799 -0.5635848 59255
22.754169 12.590172 -0.37215263 59256
22.755274 12.590739 -0.17812812 59257
22.793381 12.610291 -0.03201063 59258
22.77076 12.598683 0.18797 59259
22.809393 12.618506 0.33074561 59260
22.818216 12.623033 0.50867784 59261
22.843016 12.635757 0.66583574 59262
22.859606 12.644269 0.83155429 59263
22.867884 12.648516 1.0057204 59264
22.956879 12.694177 1.9759302 59270
22.983704 12.70794 2.1198797 59271
22.991953 12.712173 2.2833037 59272
23.001829 12.71724 2.4436424 59273
23.026186 12.729737 2.5870588 59274
23.034323 12.733912 2.7469096 59275
23.044146 12.738952 2.9037206 59276
23.06348 12.748872 3.0493166 59277
23.082026 12.758388 3.1947379 59278
23.089314 12.762127 3.3508227 59279
23.111504 12.773512 3.490433 59280
23.130312 12.783162 3.6325912 59281
23.135118 12.785628 3.7879384 59282
23.149698 12.793109 3.9323492 59283
23.16884 12.80293 4.0712643 59284
23.189928 12.813749 4.2073884 59285
23.194164 12.815923 4.3590961 59286
23.211067 12.824595 4.4974747 59287
23.246748 12.842902 5.0722122 59291
23.262686 12.851079 5.2070317 59292
23.286198 12.863143 5.3341093 59293
23.303534 12.872038 5.4661207 59294
23.317411 12.879159 5.6004844 59295
23.316648 12.878766 5.7470932 59296
23.250463 12.844806 6.2362967 59299
23.441418 12.942784 6.2136421 59300
22.719465 12.86814 -0.69159722 59616
22.755117 12.886889 -0.53857309 59617
22.775755 12.897742 -0.36774921 59618
22.771683 12.8956 -0.16746898 59619
22.7974 12.909124 -0.0060929623 59620
22.776684 12.89823 0.21106835 59621
22.800371 12.910686 0.3718752 59622
22.81106 12.916307 0.54710519 59623
22.818304 12.920116 0.72493798 59624
22.831839 12.927234 0.89373982 59625
22.864023 12.94416 1.0391891 59626
22.950058 12.989405 2.0111415 59632
22.951099 12.989952 2.1834362 59633
22.974012 13.002001 2.3302774 59634
22.99613 13.013633 2.4769673 59635
23.007214 13.019461 2.6345472 59636
23.022566 13.027535 2.7863648 59637
23.02676 13.029739 2.9489102 59638
23.048189 13.041009 3.0920663 59639
23.071461 13.053247 3.2323596 59640
23.070465 13.052724 3.3968015 59641
23.100037 13.068275 3.5286577 59642
23.110491 13.073772 3.6791544 59643
23.125414 13.081621 3.8240848 59644
23.14222 13.090459 3.9661653 59645
23.150278 13.094696 4.1159644 59646
23.15752 13.098505 4.2654986 59647
23.1747 13.107539 4.4043379 59648
23.188454 13.114773 4.5456018 59649
23.222364 13.132605 5.1213088 59653
23.251575 13.147967 5.2437773 59654
23.260904 13.152873 5.3838 59655
23.272264 13.158847 5.5210958 59656
23.280136 13.162987 5.6606722 59657
23.278927 13.162351 5.8074274 59658
23.377453 13.214165 6.1533856 59661
23.463757 13.259552 6.2220249 59662
22.702066 13.132574 -0.82313406 59978
22.726355 13.145635 -0.65464258 59979
22.749683 13.158179 -0.48634475 59980
22.774422 13.171482 -0.32121879 59981
22.79348 13.18173 -0.15036023 59982
22.740042 13.152993 0.1086042 59983
22.778378 13.173608 0.25222751 59984
22.79669 13.183455 0.41918358 59985
22.818897 13.195396 0.58008593 59986
22.832916 13.202935 0.74949086 59987
22.826454 13.19946 0.94170368 59988
22.853174 13.213828 1.0932258 59989
22.940847 13.260973 2.0608842 59995
22.959061 13.270767 2.2138486 59996
22.968828 13.276019 2.3749373 59997
22.998087 13.291753 2.5136528 59998
22.985674 13.285077 2.6962655 59999
23.026169 13.306853 2.8209243 60000
23.037663 13.313034 2.9755738 60001
23.045719 13.317367 3.1326828 60002
23.073725 13.332426 3.2679255 60003
23.07753 13.334473 3.4272499 60004
23.101427 13.347323 3.5648804 60005
23.098295 13.345638 3.728981 60006
23.125948 13.360509 3.8609512 60007
23.129066 13.362185 4.0165386 60008
23.139317 13.367698 4.1639552 60009
23.162144 13.379972 4.2980967 60010
23.154778 13.376011 4.4606495 60011
23.186895 13.393282 4.584095 60012
23.227392 13.415058 5.1534624 60016
23.261692 13.433503 5.2713628 60017
23.262424 13.433896 5.4192648 60018
23.276167 13.441286 5.5544319 60019
23.283682 13.445327 5.6943617 60020
23.217916 13.40996 6.1855989 60023
23.354212 13.483253 6.2105689 60024
23.476576 13.549056 6.248601 60025
22.714277 13.439365 -0.81107688 60341
22.724056 13.444751 -0.62429643 60342
22.735096 13.45083 -0.44082355 60343
22.747431 13.457623 -0.2606281 60344
22.772953 13.47168 -0.098407745 60345
22.72134 13.443254 0.15750168 60346
22.763855 13.466667 0.29562414 60347
22.781603 13.476442 0.46284622 60348
22.800827 13.48703 0.62693512 60349
22.809431 13.491768 0.80234587 60350
22.824347 13.499982 0.96881372 60351
22.835882 13.506335 1.1378869 60352
22.916874 13.55094 1.9368422 60357
22.935461 13.561176 2.0903587 60358
22.955744 13.572347 2.2409012 60359
22.965078 13.577488 2.4023125 60360
22.973522 13.582137 2.5634413 60361
22.991301 13.591928 2.7133341 60362
23.010843 13.602692 2.8603098 60363
23.016722 13.605929 3.0206659 60364
23.037241 13.617229 3.1645286 60365
23.046616 13.622392 3.3189745 60366
23.062977 13.631402 3.4651375 60367
23.068092 13.634219 3.6217439 60368
23.098635 13.651041 3.7515888 60369
23.10479 13.65443 3.9050829 60370
23.118059 13.661738 4.0504308 60371
23.143852 13.675943 4.1825356 60372
23.158312 13.683908 4.3249254 60373
23.158642 13.684088 4.48002 60374
23.155445 13.682326 4.6373463 60375
23.197779 13.705642 5.0540614 60378
23.221367 13.718633 5.1825376 60379
23.233377 13.725246 5.3209224 60380
23.239187 13.728446 5.464076 60381
23.258022 13.73882 5.5946131 60382
23.251329 13.735134 5.7471418 60383
23.296171 13.75983 6.1420226 60386
23.420929 13.828541 6.1780381 60387
22.710238 13.717502 -0.76662457 60704
22.749796 13.739769 -0.61821079 60705
22.769779 13.751018 -0.44618028 60706
22.791157 13.763049 -0.27732748 60707
22.783148 13.75854 -0.073491827 60708
22.740593 13.734587 0.17073263 60709
22.758722 13.744791 0.33846974 60710
22.780722 13.757174 0.50017816 60711
22.784933 13.759544 0.68188769 60712
22.802654 13.769518 0.84599262 60713
22.834084 13.78721 0.99270314 60714
22.832928 13.786559 1.1763564 60715
22.906404 13.827916 1.9824009 60720
22.926992 13.839503 2.1334336 60721
22.936684 13.844959 2.2953367 60722
22.94549 13.849915 2.4569583 60723
22.955952 13.855803 2.6155562 60724
22.985975 13.872704 2.7520981 60725
22.994797 13.877668 2.9102569 60726
23.015627 13.889393 3.0546477 60727
23.035706 13.900695 3.1988835 60728
23.034277 13.899891 3.3643339 60729
23.05798 13.913232 3.5028229 60730
23.078358 13.924703 3.6438398 60731
23.084888 13.928377 3.7978721 60732
23.103764 13.939002 3.9385211 60733
23.119272 13.947731 4.0816197 60734
23.123423 13.950068 4.234899 60735
23.153395 13.966937 4.362083 60736
23.156006 13.968408 4.5148921 60737
23.165855 13.973951 4.6597309 60738
23.188171 13.986511 5.0953355 60741
23.200447 13.993422 5.2341962 60742
23.214748 14.001471 5.3703742 60743
23.231106 14.010677 5.503902 60744
23.263292 14.028794 5.6225314 60745
23.104523 13.939425 5.9097981 60746
23.14819 13.964004 6.1596689 60748
23.277815 14.036967 6.1907878 60749
22.740681 14.027385 -0.77525645 61067
22.737801 14.025727 -0.57303929 61068
22.736076 14.024734 -0.37423038 61069
22.782694 14.051564 -0.23746432 61070
22.726778 14.019381 0.024952564 61071
22.740601 14.027336 0.19910556 61072
22.763006 14.040232 0.36139071 61073
22.753309 14.03465 0.56099159 61074
22.793098 14.057549 0.69974911 61075
22.80068 14.061913 0.87568748 61076
22.81214 14.068507 1.0455999 61077
22.837322 14.083 1.1982071 61078
22.908619 14.124033 2.006103 61083
22.906199 14.12264 2.1823943 61084
22.943085 14.143868 2.3142979 61085
22.941383 14.142889 2.4872382 61086
22.964109 14.155969 2.6325505 61087
22.973335 14.161278 2.7912714 61088
22.999622 14.176406 2.9308326 61089
23.007208 14.180772 3.0890865 61090
23.016521 14.186131 3.2443817 61091
23.040546 14.199959 3.383456 61092
23.043064 14.201407 3.543581 61093
23.065598 14.214375 3.6823158 61094
23.069088 14.216384 3.8392613 61095
23.105925 14.237585 3.9620128 61096
23.094666 14.231104 4.1314607 61097
23.116915 14.243909 4.2669168 61098
23.12785 14.250202 4.4125209 61099
23.124685 14.248381 4.5706615 61100
23.187496 14.284529 5.1220336 61104
23.199425 14.291394 5.2613101 61105
23.205198 14.294717 5.4053273 61106
23.218437 14.302336 5.5417104 61107
23.244715 14.317459 5.6656923 61108
23.186964 14.28422 6.1526341 61111
23.374538 14.392178 6.1348228 61112
22.700069 14.305379 -0.6988591 61430
22.710489 14.311511 -0.51426721 61431
22.729237 14.322545 -0.34173447 61432
22.742321 14.330246 -0.16360095 61433
22.699984 14.305326 0.081145883 61434
22.732212 14.324294 0.23233612 61435
22.744539 14.331551 0.40651521 61436
22.760696 14.34106 0.57465655 61437
22.766291 14.344352 0.75399357 61438
22.780561 14.352751 0.92158353 61439
22.803635 14.366331 1.0775675 61440
22.816111 14.373673 1.2446786 61441
22.887264 14.415551 2.0511682 61446
22.896885 14.421213 2.2139168 61447
22.920715 14.435238 2.359967 61448
22.941263 14.447332 2.5086038 61449
22.935688 14.44405 2.6841776 61450
22.959681 14.458172 2.8269534 61451
22.9855 14.473368 2.9669194 61452
23.000349 14.482107 3.1174662 61453
23.019562 14.493416 3.2624848 61454
23.017345 14.49211 3.4285028 61455
23.045374 14.508607 3.5625503 61456
23.057106 14.515512 3.712244 61457
23.070675 14.523498 3.8590996 61458
23.072989 14.524858 4.0161133 61459
23.092907 14.536583 4.1547494 61460
23.101557 14.541673 4.3035069 61461
23.112087 14.547871 4.4494629 61462
23.127193 14.556762 4.5901074 61463
23.164335 14.578621 5.1657329 61467
23.183985 14.590186 5.2979283 61468
23.202991 14.601372 5.4300027 61469
23.204977 14.602541 5.5766139 61470
23.23633 14.620995 5.6961999 61471
23.109949 14.546608 6.0987234 61473
23.20265 14.60117 6.1624374 61474
23.470003 14.758528 6.0772247 61475
22.642895 14.563793 -0.59968174 61793
22.657196 14.572392 -0.42094144 61794
22.672842 14.581798 -0.24540624 61795
22.694574 14.594864 -0.078867279 61796
22.69413 14.594596 0.11354113 61797
22.713955 14.606516 0.27955905 61798
22.718569 14.609289 0.46259907 61799
22.746117 14.625853 0.61666274 61800
22.760818 14.634691 0.78483999 61801
22.774605 14.64298 0.95275956 61802
22.799618 14.658018 1.1062936 61803
22.801876 14.659375 1.2849855 61804
22.867975 14.699116 1.9213674 61808
22.870556 14.700666 2.092958 61809
22.912209 14.72571 2.2204139 61810
22.913078 14.726232 2.3914869 61811
22.935701 14.739834 2.5377979 61812
22.934795 14.739288 2.7082438 61813
22.953289 14.750407 2.8568306 61814
22.978672 14.765669 2.9972229 61815
22.987982 14.771266 3.1534617 61816
23.004185 14.781007 3.3014953 61817
23.0093 14.784082 3.4598651 61818
23.034306 14.799116 3.5969763 61819
23.035225 14.799669 3.7574427 61820
23.066618 14.818543 3.8864539 61821
23.06595 14.818142 4.0463915 61822
23.082844 14.828299 4.1880136 61823
23.093748 14.834854 4.3345699 61824
23.10655 14.842551 4.4783597 61825
23.105337 14.841821 4.6345716 61826
23.157001 14.872883 5.196589 61830
23.170868 14.88122 5.3341417 61831
23.192202 14.894046 5.4641843 61832
23.20746 14.90322 5.5989866 61833
23.076044 14.824205 6.1528664 61836
23.295046 14.955879 6.108068 61837
23.445532 15.046357 6.1242013 61838
22.605076 14.850458 -0.73462266 62156
22.612839 14.855229 -0.54653758 62157
22.65214 14.879387 -0.39970112 62158
22.655603 14.881515 -0.20925678 62159
22.660341 14.884427 -0.022101205 62160
22.685274 14.899752 0.13871445 62161
22.697496 14.907264 0.31372854 62162
22.72543 14.924435 0.46842673 62163
22.733416 14.929343 0.64578551 62164
22.754845 14.942514 0.80579877 62165
22.770597 14.952197 0.9712708 62166
22.773344 14.953884 1.1505562 62167
22.853983 15.00345 1.9505469 62172
22.866087 15.010889 2.1114964 62173
22.882328 15.020872 2.266741 62174
22.900269 15.031898 2.4190614 62175
22.899807 15.031614 2.5900733 62176
22.921156 15.044737 2.7365446 62177
22.949368 15.062078 2.87485 62178
22.961622 15.069611 3.0290284 62179
22.978188 15.079793 3.1776769 62180
22.988865 15.086355 3.331399 62181
23.00647 15.097177 3.4770126 62182
23.018169 15.104367 3.6276629 62183
23.026501 15.109488 3.780673 62184
23.05488 15.126932 3.9127824 62185
23.053869 15.12631 4.0730624 62186
23.075628 15.139686 4.2100124 62187
23.086184 15.146173 4.3570013 62188
23.082783 15.144082 4.5163875 62189
23.073242 15.138217 4.6804261 62190
23.136646 15.177189 5.2314548 62194
23.169024 15.19709 5.3523026 62195
23.17378 15.200013 5.4974608 62196
23.185957 15.207498 5.6351023 62197
23.103262 15.156666 6.1465802 62200
23.351763 15.309415 6.0775342 62201
22.60721 15.148322 -0.71970576 62520
22.633039 15.164531 -0.55465668 62521
22.648687 15.174352 -0.37813824 62522
22.656364 15.179168 -0.19319619 62523
22.665363 15.184814 -0.011487665 62524
22.680431 15.19427 0.16127001 62525
22.704037 15.209083 0.3223199 62526
22.712523 15.214408 0.50028706 62527
22.739145 15.231115 0.65523958 62528
22.743372 15.233768 0.83546942 62529
22.763477 15.246385 0.99565613 62530
22.773064 15.252399 1.1668421 62531
22.858442 15.305977 2.1356525 62537
22.884241 15.322166 2.2804418 62538
22.896805 15.33005 2.4386067 62539
22.906036 15.335844 2.5992093 62540
22.921989 15.345854 2.7515194 62541
22.934631 15.353787 2.9062817 62542
22.969345 15.375572 3.0369945 62543
22.980482 15.382561 3.1913962 62544
22.988264 15.387444 3.3481708 62545
22.995235 15.391818 3.5046666 62546
23.011715 15.40216 3.6505065 62547
23.030056 15.41367 3.7935836 62548
23.03989 15.419841 3.9441988 62549
23.054176 15.428805 4.0894623 62550
23.067736 15.437314 4.2345285 62551
23.059555 15.43218 4.3996034 62552
23.071596 15.439735 4.5441532 62553
23.088209 15.450161 4.6834931 62554
23.147863 15.487596 5.2391982 62558
23.155704 15.492516 5.3825479 62559
23.160133 15.495296 5.5280776 62560
23.180094 15.507822 5.6589193 62561
23.217134 15.531065 6.0673056 62564
23.322386 15.597116 6.1225162 62565
22.598486 15.444651 -0.69187838 62884
22.621481 15.459381 -0.52352536 62885
22.629646 15.464612 -0.33798307 62886
22.64612 15.475165 -0.16432828 62887
22.661659 15.485121 0.009072219 62888
22.676268 15.494479 0.18220946 62889
22.701767 15.510815 0.34083742 62890
22.714569 15.519016 0.51349372 62891
22.728832 15.528153 0.68304467 62892
22.737398 15.533641 0.85795903 62893
22.75465 15.544693 1.0213557 62894
22.771044 15.555195 1.1845303 62895
22.835289 15.596352 2.0022776 62900
22.851515 15.606748 2.1585367 62901
22.871914 15.619815 2.309186 62902
22.88406 15.627597 2.4677246 62903
22.895388 15.634853 2.626014 62904
22.910931 15.644811 2.778729 62905
22.93075 15.657508 2.9259446 62906
22.9473 15.66811 3.0756316 62907
22.965643 15.67986 3.2225063 62908
22.973032 15.684594 3.3796377 62909
22.984745 15.692099 3.5312991 62910
22.982821 15.690866 3.6956267 62911
23.00329 15.703979 3.8364854 62912
23.028257 15.719974 3.9720995 62913
23.034361 15.723883 4.1254039 62914
23.057966 15.739006 4.2607455 62915
23.075687 15.750359 4.4010162 62916
23.055906 15.737685 4.5761175 62917
23.082693 15.754846 4.7059436 62918
23.127621 15.783628 5.2756991 62922
23.151207 15.798738 5.4049234 62923
23.166117 15.80829 5.5412807 62924
23.004757 15.704913 5.8327212 62925
23.211071 15.837088 6.092093 62928
23.334908 15.916425 6.1319475 62929
22.578457 15.762475 -0.67211831 63249
22.591732 15.77117 -0.49177185 63250
22.610981 15.783777 -0.32037744 63251
22.626993 15.794266 -0.14633735 63252
22.653767 15.811803 0.013138005 63253
22.649189 15.808804 0.20950678 63254
22.662392 15.817451 0.38271403 63255
22.674671 15.825494 0.55564409 63256
22.70507 15.845407 0.7057932 63257
22.717989 15.853867 0.87544709 63258
22.737211 15.866457 1.0364679 63259
22.741138 15.86903 1.2139345 63260
22.836239 15.931319 2.1711302 63266
22.851292 15.941179 2.327626 63267
22.855591 15.943995 2.4945905 63268
22.89151 15.967523 2.6266546 63269
22.886665 15.964349 2.8010612 63270
22.903564 15.975417 2.951349 63271
22.912128 15.981027 3.109308 63272
22.935116 15.996083 3.2513504 63273
22.947222 16.004013 3.4036493 63274
22.953453 16.008093 3.5608747 63275
22.974277 16.021734 3.7024119 63276
22.991846 16.033241 3.8463666 63277
22.993202 16.034128 4.0053964 63278
23.0145 16.048079 4.1438818 63279
23.029926 16.058184 4.2872734 63280
23.044657 16.067831 4.4304857 63281
23.058693 16.077024 4.5735135 63282
23.069403 16.08404 4.7188249 63283
23.118488 16.11619 5.285737 63287
23.123034 16.119167 5.432373 63288
23.148333 16.135738 5.5596271 63289
23.085272 16.094431 6.0583925 63292
23.241035 16.196459 6.0704246 63293
22.510681 16.021862 -1.3779255 63610
22.555597 16.051876 -0.63194114 63614
22.591362 16.075773 -0.48016742 63615
22.605543 16.085251 -0.30258784 63616
22.623428 16.097202 -0.13101152 63617
22.633408 16.103868 0.048874408 63618
22.656492 16.119295 0.21142067 63619
22.671675 16.129442 0.38226429 63620
22.683598 16.137407 0.55566549 63621
22.694605 16.144762 0.72877783 63622
22.709471 16.154697 0.8960222 63623
22.742636 16.176859 1.0408189 63624
22.734196 16.171219 1.2325184 63625
22.826876 16.233149 2.1922669 63631
22.848963 16.24791 2.3411727 63632
22.857895 16.253878 2.5032287 63633
22.88096 16.269291 2.6491265 63634
22.875776 16.265825 2.8238606 63635
22.897316 16.28022 2.9693499 63636
22.90049 16.282339 3.1329482 63637
22.930676 16.302511 3.2676866 63638
22.939903 16.308676 3.4230239 63639
22.950899 16.316025 3.575536 63640
22.976501 16.333132 3.712486 63641
22.980902 16.336073 3.8696761 63642
22.979357 16.335041 4.0316162 63643
23.000275 16.349018 4.1705761 63644
23.020531 16.362555 4.3094153 63645
23.01668 16.35998 4.4704971 63646
23.053846 16.384815 4.5916486 63647
23.064247 16.391766 4.7374401 63648
23.112091 16.423737 5.3063197 63652
23.119019 16.428366 5.4510217 63653
23.114542 16.425373 5.6049781 63654
23.169489 16.462091 6.0016708 63657
23.243505 16.511553 6.08498 63658
22.49688 16.349669 -1.3710428 63975
22.558361 16.391653 -0.64652967 63979
22.57305 16.401684 -0.4682619 63980
22.596027 16.417376 -0.30171737 63981
22.5996 16.419815 -0.11256252 63982
22.618454 16.43269 0.05634338 63983
22.629417 16.440178 0.2335005 63984
22.658237 16.45986 0.38785926 63985
22.665062 16.46452 0.56730318 63986
22.687517 16.479855 0.72689718 63987
22.706791 16.493017 0.88909215 63988
22.713293 16.497456 1.0648988 63989
22.806883 16.561369 2.2056482 63996
22.831045 16.577871 2.3523965 63997
22.8545 16.593887 2.4990244 63998
22.849895 16.590742 2.6744919 63999
22.871826 16.605721 2.8207169 64000
22.873011 16.606529 2.9876604 64001
22.888426 16.617056 3.1386898 64002
22.910675 16.63225 3.2817764 64003
22.90691 16.629679 3.4504104 64004
22.932787 16.64735 3.5880039 64005
22.947815 16.657612 3.735678 64006
22.967249 16.670885 3.8781056 64007
22.980867 16.680185 4.0254183 64008
22.988617 16.685476 4.177527 64009
23.011147 16.700863 4.3144603 64010
23.025249 16.710493 4.4587088 64011
23.025637 16.710758 4.6150627 64012
23.035706 16.717634 4.7613053 64013
23.098114 16.760252 5.3177052 64017
23.096807 16.759361 5.470057 64018
23.020098 16.706972 5.6881866 64019
23.143373 16.791161 6.0250907 64022
23.260052 16.870844 6.0723534 64023
22.48802 16.658497 -1.3535649 64340
22.549877 16.701588 -0.63030463 64344
22.568697 16.714699 -0.45734179 64345
22.579712 16.722372 -0.2760635 64346
22.601339 16.737438 -0.10927927 64347
22.615147 16.747055 0.06578242 64348
22.62104 16.751162 0.24900571 64349
22.625967 16.754593 0.43187398 64350
22.653469 16.773752 0.58650601 64351
22.670753 16.785793 0.75211918 64352
22.691946 16.800556 0.91198152 64353
22.700418 16.806459 1.0854126 64354
22.793612 16.87138 2.2265134 64361
22.812441 16.884497 2.3790619 64362
22.837938 16.902258 2.5235343 64363
22.847866 16.909174 2.683625 64364
22.861979 16.919004 2.8382349 64365
22.862835 16.919601 3.0055964 64366
22.882908 16.933584 3.1519568 64367
22.897247 16.943573 3.3033047 64368
22.915903 16.95657 3.449338 64369
22.913582 16.954952 3.6155329 64370
22.93841 16.972248 3.7535577 64371
22.952383 16.981983 3.9015479 64372
22.973335 16.99658 4.041842 64373
22.983347 17.003553 4.191956 64374
22.987476 17.00643 4.3467784 64375
23.003792 17.017796 4.4890141 64376
23.019442 17.028698 4.6310873 64377
23.016176 17.026423 4.7900081 64378
23.063957 17.059708 5.3602285 64382
23.078209 17.069635 5.4987445 64383
23.028864 17.035259 5.9897904 64386
23.15029 17.11985 6.0326834 64387
23.317509 17.236343 6.0376363 64388
22.487167 16.98024 -1.354458 64705
22.540571 17.018192 -0.6206969 64709
22.556669 17.029633 -0.44442001 64710
22.569559 17.038794 -0.26556447 64711
22.602299 17.062059 -0.11242089 64712
22.613424 17.069967 0.06595771 64713
22.623627 17.077217 0.24403378 64714
22.642262 17.09046 0.4106524 64715
22.645966 17.093092 0.59370315 64716
22.662861 17.105099 0.75980961 64717
22.686028 17.121563 0.91743886 64718
22.696529 17.129025 1.0885956 64719
22.784891 17.19182 2.2358992 64726
22.803366 17.20495 2.3889787 64727
22.826025 17.221054 2.5366397 64728
22.823254 17.219084 2.7102377 64729
22.84938 17.237652 2.8523123 64730
22.862392 17.246899 3.0071998 64731
22.86965 17.252056 3.1669958 64732
22.901215 17.27449 3.3009717 64733
22.901953 17.275013 3.4654081 64734
22.914511 17.283937 3.6168623 64735
22.931416 17.295952 3.7630711 64736
22.94763 17.307474 3.9091125 64737
22.958046 17.314877 4.0599494 64738
22.962618 17.318125 4.215497 64739
22.971575 17.324492 4.3658371 64740
22.982397 17.332182 4.5134883 64741
23.008055 17.350416 4.6463356 64742
23.02013 17.358997 4.7912073 64743
23.061668 17.388517 5.3686376 64747
23.08357 17.404083 5.5007248 64748
23.031164 17.366837 5.995554 64751
23.197409 17.484985 6.0007353 64752
22.454674 17.303782 -1.3309158 65071
22.522028 17.352667 -0.61560577 65075
22.533146 17.360735 -0.43317646 65076
22.541031 17.366457 -0.24823666 65077
22.561764 17.381506 -0.080511466 65078
22.579346 17.394266 0.089812674 65079
22.600712 17.409775 0.25433055 65080
22.609604 17.416227 0.4325344 65081
22.62929 17.430515 0.59660935 65082
22.643461 17.4408 0.76598316 65083
22.659142 17.452181 0.93236428 65084
22.678736 17.466402 1.0930625 65085
22.779297 17.539389 2.2281103 65092
22.782793 17.541925 2.3975363 65093
22.795265 17.550976 2.5561922 65094
22.794641 17.550524 2.7275789 65095
22.822838 17.570988 2.8676238 65096
22.845432 17.587387 3.0127378 65097
22.862364 17.599676 3.1628411 65098
22.863586 17.600563 3.3280025 65099
22.879045 17.611784 3.4776611 65100
22.891283 17.620665 3.629642 65101
22.907852 17.63269 3.7764025 65102
