# .PCD v0.7 - Point Cloud Data file format
VERSION 0.7
FIELDS x y z intensity
SIZE 4 4 4 4
TYPE F F F F
COUNT 1 1 1 1
WIDTH 1341
HEIGHT 1
VIEWPOINT 0 0 0 1 0 0 0
POINTS 1341
DATA ascii
26.285578 1.8166904 6.2630997 41714
26.502621 1.8249645 6.236454 41715
26.726624 1.8335041 6.2065487 41716
26.951277 1.8420683 6.178299 41717
27.157383 1.8499254 6.1661267 41718
27.38644 1.8586576 6.1387401 41719
27.590395 1.8664327 6.1320462 41720
27.810947 1.8748406 6.1150346 41721
28.019104 1.8827759 6.1090312 41722
28.230972 1.8908527 6.1022143 41723
28.436796 1.898699 6.101583 41724
28.659384 1.9071845 6.0909343 41725
28.87921 1.9155647 6.0842166 41726
29.109386 1.9243394 6.0722957 41727
29.353287 1.9336374 6.0530462 41728
29.577944 1.9422017 6.0490975 41729
29.849518 1.9525547 6.0155768 41730
30.095211 1.961921 6.0018592 41731
30.37818 1.9727083 5.9657631 41732
30.65522 1.9832697 5.9362125 41733
30.946402 1.9943701 5.9000869 41734
31.251823 2.0060134 5.8575702 41735
31.564831 2.017946 5.8131309 41736
31.902391 2.0308144 5.7562208 41737
32.203598 2.0422971 5.7252059 41738
32.546394 2.0553651 5.6713285 41739
32.835564 2.0663888 5.6534834 41740
33.125389 2.0774376 5.6378555 41741
33.426144 2.0889027 5.6182885 41742
33.727577 2.100394 5.6010399 41743
34.008991 2.1111221 5.5982594 41744
34.308235 2.1225297 5.5875816 41745
34.632355 2.1348858 5.5652499 41746
43.002453 2.45397 5.0348101 41767
43.039551 2.4553838 5.2125335 41768
24.332443 1.880213 6.4537196 42074
24.531261 1.8889183 6.4225287 42075
24.724566 1.897382 6.3979106 42076
24.909201 1.9054662 6.3823471 42077
25.112852 1.9143831 6.3528652 42078
25.317116 1.9233267 6.3248692 42079
25.515762 1.9320245 6.3033857 42080
25.733683 1.9415661 6.268353 42081
25.908434 1.9492174 6.2697091 42082
26.121256 1.9585359 6.2426453 42083
26.30315 1.9665002 6.2417154 42084
26.520239 1.9760052 6.2151999 42085
26.715715 1.9845642 6.2072906 42086
26.914835 1.9932826 6.1983719 42087
27.136791 2.0030007 6.1740856 42088
27.320875 2.011061 6.1800914 42089
27.540691 2.0206854 6.1612964 42090
27.741709 2.0294869 6.1582789 42091
27.943157 2.0383074 6.1567187 42092
28.151525 2.0474308 6.1519575 42093
28.392921 2.0580001 6.1255445 42094
28.602289 2.0671673 6.123971 42095
28.83831 2.0775013 6.105617 42096
29.061768 2.0872855 6.0981231 42097
29.315395 2.0983906 6.0719433 42098
29.556456 2.1089454 6.0566587 42099
29.808041 2.1199608 6.0364871 42100
30.096836 2.1326058 5.9938316 42101
30.379776 2.1449943 5.9578032 42102
30.67687 2.1580024 5.915194 42103
30.947947 2.1698716 5.8922596 42104
31.273523 2.1841269 5.836863 42105
31.569685 2.1970942 5.8032956 42106
31.907215 2.2118731 5.746469 42107
32.181259 2.2238719 5.7324476 42108
32.483128 2.2370892 5.7037215 42109
32.806202 2.251235 5.6648216 42110
33.089077 2.2636206 5.653266 42111
33.372551 2.2760324 5.6438737 42112
33.680683 2.2895241 5.622376 42113
33.989521 2.3030465 5.6032596 42114
34.295589 2.3164475 5.5885425 42115
34.60231 2.3298771 5.5761909 42116
43.00597 2.6978295 5.0276823 42137
43.021252 2.6984982 5.2154007 42138
23.68733 2.0025282 6.4544692 42440
24.206936 2.0285764 6.4125695 42443
24.393215 2.0379148 6.3906736 42444
24.583084 2.0474331 6.3675327 42445
24.76737 2.0566714 6.3508878 42446
24.945999 2.0656264 6.3406615 42447
25.137419 2.0752223 6.3215446 42448
25.329359 2.0848444 6.3038054 42449
25.50938 2.093869 6.2974954 42450
25.717897 2.1043222 6.2699761 42451
25.892584 2.1130793 6.2713137 42452
26.095905 2.1232719 6.2516413 42453
26.268248 2.1319115 6.2580209 42454
26.475708 2.1423116 6.2387314 42455
26.661499 2.1516256 6.2379651 42456
26.860422 2.1615977 6.2288599 42457
27.072588 2.1722338 6.2115903 42458
27.259659 2.1816115 6.2149773 42459
27.482468 2.1927812 6.1935897 42460
27.680056 2.2026865 6.192729 42461
27.89747 2.2135856 6.1792221 42462
28.11866 2.224674 6.1649842 42463
28.366434 2.2370951 6.1338453 42464
28.572432 2.247422 6.1345091 42465
28.814886 2.2595763 6.1114988 42466
29.05468 2.2715974 6.0925822 42467
29.295067 2.2836483 6.0754609 42468
29.562485 2.2970541 6.0421758 42469
29.833946 2.3106627 6.0086961 42470
30.106142 2.3243082 5.9772868 42471
30.399071 2.3389928 5.9347439 42472
30.666065 2.3523774 5.9119577 42473
30.947134 2.3664677 5.8825092 42474
31.27265 2.382786 5.8271604 42475
31.551895 2.396785 5.804358 42476
31.865635 2.412513 5.7624059 42477
32.173439 2.4279435 5.7271161 42478
32.465034 2.4425614 5.7047062 42479
32.784592 2.4585812 5.6678643 42480
33.0742 2.4730992 5.6521306 42481
33.378162 2.488337 5.630403 42482
33.686256 2.5037823 5.6089826 42483
34.01228 2.5201259 5.5798273 42484
34.294174 2.5342574 5.5793271 42485
34.618156 2.550499 5.557054 42486
42.955448 2.9684534 5.0412102 42507
42.999775 2.9706752 5.2155643 42508
23.677361 2.1497619 6.4521966 42810
24.166531 2.1773307 6.4364023 42813
24.252285 2.1821637 6.4999428 42814
24.536247 2.1981676 6.3962908 42815
24.72035 2.2085435 6.3795009 42816
24.898798 2.2186005 6.3691306 42817
25.071514 2.2283347 6.3651037 42818
25.266304 2.2393126 6.3446112 42819
25.433657 2.2487445 6.3481345 42820
25.635651 2.2601287 6.3253431 42821
25.81004 2.2699571 6.3263836 42822
26.013058 2.2813988 6.3064127 42823
26.19771 2.2918057 6.3026657 42824
26.401747 2.3033049 6.285574 42825
26.599966 2.3144763 6.2748294 42826
26.811399 2.3263924 6.2558565 42827
27.001024 2.3370795 6.2552476 42828
27.216684 2.3492336 6.236897 42829
27.426466 2.3610568 6.2248826 42830
27.643202 2.3732719 6.2096834 42831
27.857241 2.3853347 6.1984272 42832
28.091255 2.3985236 6.1747561 42833
28.342161 2.4126644 6.1412463 42834
28.570921 2.4255569 6.1257505 42835
28.800234 2.4384806 6.1119556 42836
29.056376 2.4529166 6.0816708 42837
29.293436 2.4662771 6.0668859 42838
29.567415 2.4817183 6.0291719 42839
29.838846 2.497016 5.9957833 42840
30.094389 2.5114179 5.9755483 42841
30.373896 2.5271707 5.9418316 42842
30.67421 2.544096 5.8971329 42843
30.941839 2.5591793 5.8764839 42844
31.250465 2.5765731 5.8319731 42845
31.539715 2.5928748 5.8027158 42846
31.853363 2.6105518 5.7607827 42847
32.140732 2.6267474 5.7381978 42848
32.459377 2.644706 5.6989269 42849
32.768635 2.6621356 5.6683865 42850
33.082073 2.6798005 5.6381731 42851
33.399704 2.6977017 5.6083384 42852
33.721535 2.7158399 5.5789332 42853
34.013142 2.7322743 5.5702481 42854
34.357143 2.751662 5.5336657 42855
42.943398 3.2355726 5.0385628 42877
42.954987 3.2362254 5.2278214 42878
23.678045 2.2993014 6.4407077 43180
24.213455 2.3328497 6.5224614 43184
24.457558 2.3481452 6.4522505 43185
24.647482 2.3600461 6.4300637 43186
24.828726 2.3714027 6.4169006 43187
25.004265 2.3824019 6.4101038 43188
25.201891 2.3947852 6.3868732 43189
25.384541 2.40623 6.3776336 43190
25.564514 2.4175072 6.3721952 43191
25.769934 2.4303787 6.3481574 43192
25.960232 2.4423027 6.3379769 43193
26.163589 2.455045 6.3193369 43194
26.351683 2.466831 6.314393 43195
26.559227 2.4798357 6.2962227 43196
26.783222 2.4938712 6.2674952 43197
26.985508 2.5065465 6.2572389 43198
27.197884 2.5198538 6.2412925 43199
27.404366 2.5327919 6.2316537 43200
27.637121 2.5473764 6.2046461 43201
27.864046 2.5615954 6.1840677 43202
28.081825 2.5752416 6.1721687 43203
28.319645 2.5901432 6.1479735 43204
28.554829 2.6048796 6.1278625 43205
28.790606 2.6196535 6.109508 43206
29.030251 2.6346695 6.090642 43207
29.290253 2.6509614 6.0600147 43208
29.55426 2.6675041 6.0291152 43209
29.812347 2.6836758 6.0046844 43210
30.091032 2.7011383 5.9689126 43211
30.360476 2.7180214 5.9418812 43212
30.633949 2.7351573 5.9147162 43213
30.91147 2.7525468 5.8874683 43214
31.209864 2.771244 5.8493943 43215
31.492199 2.7889352 5.8243437 43216
31.81241 2.8089995 5.7780461 43217
32.113167 2.8278449 5.7469239 43218
32.424873 2.8473766 5.7118292 43219
32.720341 2.8658905 5.6895747 43220
33.047249 2.8863745 5.6509762 43221
33.378422 2.9071257 5.612874 43222
33.706997 2.9277141 5.5794005 43223
34.029491 2.9479218 5.5525384 43224
42.925648 3.505353 5.0401101 43247
42.959042 3.5074451 5.2194719 43248
24.430145 2.5296988 6.4604478 43555
24.61076 2.5423682 6.44592 43556
24.794918 2.5552859 6.4301271 43557
24.9734 2.5678055 6.4207301 43558
25.164694 2.581224 6.4024992 43559
25.359612 2.5948963 6.3831358 43560
25.533241 2.6070757 6.3826675 43561
25.75415 2.6225715 6.3461595 43562
25.944366 2.6359141 6.3359952 43563
26.157082 2.650835 6.3100028 43564
26.341965 2.6638038 6.3075604 43565
26.555779 2.6788018 6.2845783 43566
26.773355 2.6940639 6.2607546 43567
26.975573 2.7082484 6.2505455 43568
27.17827 2.7224667 6.241806 43569
27.397499 2.7378445 6.2226768 43570
27.633402 2.7543919 6.1933718 43571
27.847338 2.7693985 6.18225 43572
28.084475 2.7860324 6.1563826 43573
28.31249 2.8020267 6.1392417 43574
28.547598 2.8185184 6.1191916 43575
28.780024 2.8348219 6.1031895 43576
29.026146 2.8520861 6.079823 43577
29.272902 2.869395 6.0583091 43578
29.507069 2.8858204 6.047636 43579
29.768263 2.9041421 6.0208645 43580
30.033453 2.9227438 5.9938607 43581
30.315985 2.9425621 5.9578681 43582
30.572554 2.9605591 5.9415417 43583
30.869925 2.9814184 5.9010892 43584
31.144594 3.0006852 5.8780379 43585
31.430038 3.0207076 5.8506579 43586
31.743221 3.042676 5.8084459 43587
32.040314 3.0635157 5.7792349 43588
32.355129 3.0855985 5.7418265 43589
32.657135 3.1067827 5.7152019 43590
32.956451 3.1277783 5.6929808 43591
33.294128 3.1514647 5.6504798 43592
33.622383 3.1744902 5.6167412 43593
33.96521 3.1985378 5.5774732 43594
42.891026 3.8246403 5.0442677 43617
42.93528 3.8277442 5.2186451 43618
23.701582 2.6635637 6.5239806 43921
24.178066 2.7006955 6.5208702 43924
24.412777 2.7189865 6.4584198 43925
24.596357 2.7332931 6.4413452 43926
24.783506 2.7478774 6.4230313 43927
24.974247 2.7627418 6.4035239 43928
25.153137 2.7766826 6.3954916 43929
25.338663 2.7911406 6.3837085 43930
25.540228 2.8068485 6.3607635 43931
25.717352 2.8206515 6.3591638 43932
25.916813 2.8361955 6.3415232 43933
26.129387 2.8527613 6.3155069 43934
26.317297 2.8674052 6.3106012 43935
26.534147 2.8843043 6.2851796 43936
26.722992 2.8990207 6.2830992 43937
26.950514 2.9167514 6.2535572 43938
27.146687 2.932039 6.2495842 43939
27.381807 2.950362 6.2185521 43940
27.591835 2.9667292 6.2081542 43941
27.834661 2.9856527 6.1758456 43942
28.049009 3.0023565 6.1663432 43943
28.283354 3.0206189 6.1445193 43944
28.52483 3.0394371 6.1198401 43945
28.737497 3.0560102 6.1175723 43946
28.986702 3.0754306 6.0918508 43947
29.233267 3.0946453 6.0702724 43948
29.47385 3.113394 6.0550423 43949
29.741488 3.1342506 6.0237722 43950
30.003199 3.1546457 5.9989762 43951
30.238934 3.1730165 5.993783 43952
30.525255 3.1953294 5.9575467 43953
30.788906 3.2158756 5.9387202 43954
31.096838 3.2398727 5.8938513 43955
31.345015 3.2592127 5.8899465 43956
31.654476 3.283329 5.8496041 43957
31.954607 3.3067181 5.818007 43958
32.241917 3.3291082 5.7971263 43959
32.540108 3.3523462 5.7722049 43960
32.869728 3.3780334 5.7309704 43961
33.176254 3.4019206 5.7066913 43962
33.500648 3.4272006 5.6745954 43963
33.825836 3.4525423 5.6450315 43964
34.165592 3.4790194 5.609972 43965
42.881805 4.1582699 5.0352483 43987
42.907925 4.1603045 5.217979 43988
24.221508 2.9056027 6.4652257 44294
24.389286 2.9200697 6.4598117 44295
24.572746 2.9358888 6.4427485 44296
24.741354 2.9504273 6.4397569 44297
24.9319 2.9668574 6.4201798 44298
25.12915 2.9838657 6.3969274 44299
25.299044 2.9985149 6.3977118 44300
25.500418 3.0158787 6.3747125 44301
25.717974 3.0346379 6.3407598 44302
25.895447 3.0499408 6.3405347 44303
26.111032 3.0685301 6.312089 44304
26.292528 3.0841799 6.3121066 44305
26.496571 3.1017737 6.2964134 44306
26.710657 3.1202338 6.2749681 44307
26.931696 3.1392932 6.2502985 44308
27.140547 3.1573017 6.2368164 44309
27.353117 3.175631 6.2224932 44310
27.575865 3.1948376 6.2026587 44311
27.825018 3.2163215 6.1657166 44312
28.023077 3.2333994 6.1679516 44313
28.283258 3.2558339 6.1276083 44314
28.501837 3.2746813 6.119175 44315
28.740524 3.2952626 6.0986285 44316
28.992928 3.3170264 6.0707788 44317
29.236137 3.3379977 6.0516181 44318
29.489841 3.3598738 6.0275517 44319
29.737577 3.3812351 6.0098681 44320
30.009132 3.4046504 5.9785428 44321
30.288063 3.4287016 5.944891 44322
30.551052 3.4513783 5.9243135 44323
30.84145 3.4764185 5.888361 44324
31.115845 3.5000784 5.8654366 44325
31.40773 3.5252469 5.8338985 44326
31.700365 3.5504797 5.8046112 44327
31.986963 3.5751922 5.7818103 44328
32.304779 3.6025965 5.7423296 44329
32.623428 3.6300726 5.7053275 44330
32.936073 3.6570308 5.6749463 44331
33.27 3.6858244 5.6346769 44332
33.597931 3.7141006 5.6011004 44333
33.930099 3.7427425 5.5680652 44334
42.845913 4.5115232 5.0377398 44357
42.861115 4.5128336 5.2254276 44358
23.651545 3.0750649 6.5248666 44661
24.1819 3.1256826 6.4751182 44664
24.37689 3.1442926 6.4464407 44665
24.551086 3.160918 6.4371352 44666
24.728777 3.1778769 6.4265118 44667
24.937683 3.1978152 6.3917675 44668
25.137978 3.2169316 6.3661351 44669
25.310963 3.2334414 6.3645668 44670
25.51853 3.2532518 6.3367434 44671
25.732946 3.273716 6.3054771 44672
25.913553 3.2909532 6.3029695 44673
26.122837 3.3109274 6.2796383 44674
26.316933 3.329452 6.2700605 44675
26.558947 3.35255 6.2254519 44676
26.773161 3.3729951 6.2044044 44677
26.972027 3.3919749 6.1969419 44678
27.206493 3.4143527 6.1646657 44679
27.432016 3.4358768 6.1412668 44680
27.661364 3.4577658 6.1171861 44681
27.875189 3.4781735 6.1065445 44682
28.112171 3.5007913 6.0811601 44683
28.346539 3.5231595 6.0598688 44684
28.588022 3.546207 6.0357275 44685
28.823603 3.568691 6.0179787 44686
29.06304 3.5915432 5.9997206 44687
29.303068 3.6144514 5.9832597 44688
29.560148 3.6389875 5.957377 44689
29.817896 3.6635871 5.9334445 44690
30.079609 3.6885653 5.909255 44691
30.335331 3.7129717 5.891458 44692
30.588329 3.737118 5.8777862 44693
30.868652 3.7638721 5.8486528 44694
31.13628 3.7894149 5.8303018 44695
31.404537 3.8150175 5.8139915 44696
31.690269 3.842288 5.7890878 44697
31.956408 3.8676887 5.7790637 44698
32.267189 3.8973501 5.7437878 44699
32.55497 3.9248161 5.7255163 44700
32.863857 3.9542964 5.6970487 44701
33.176907 3.9841743 5.6689281 44702
33.490707 4.0141234 5.6432452 44703
33.812111 4.0447989 5.6159587 44704
42.824669 4.9049649 5.0268764 44727
42.843529 4.9067645 5.2130084 44728
23.657707 3.2793651 6.4949188 45031
24.200106 3.3357868 6.435215 45034
24.37381 3.3538558 6.4247794 45035
24.566261 3.3738751 6.4001803 45036
24.762337 3.3942714 6.3744254 45037
24.965137 3.4153671 6.3450179 45038
25.159288 3.4355633 6.3246708 45039
25.350878 3.4554927 6.3082423 45040
25.55851 3.4770911 6.2807093 45041
25.744917 3.4964817 6.2720923 45042
25.941154 3.5168948 6.2574015 45043
26.153593 3.5389931 6.2318521 45044
26.341425 3.558532 6.2274132 45045
26.545481 3.5797582 6.2121792 45046
26.775425 3.6036777 6.1791153 45047
26.980589 3.6250191 6.1669822 45048
27.179865 3.6457484 6.1611233 45049
27.392399 3.6678567 6.1472216 45050
27.5926 3.6886821 6.1443224 45051
27.819016 3.7122343 6.1241207 45052
28.02985 3.7341659 6.1172595 45053
28.250883 3.7571583 6.1049986 45054
28.469187 3.7798667 6.0966792 45055
28.681456 3.8019474 6.094552 45056
28.926901 3.8274791 6.0712476 45057
29.153275 3.851027 6.063355 45058
29.399908 3.8766825 6.0436764 45059
29.653755 3.9030881 6.0213995 45060
29.908234 3.9295597 6.0010495 45061
30.163338 3.9560962 5.9826307 45062
30.432377 3.9840822 5.9574008 45063
30.705429 4.012486 5.9320564 45064
30.999268 4.0430517 5.8958597 45065
31.283802 4.0726495 5.8683672 45066
31.599365 4.1054754 5.8239145 45067
31.902281 4.1369853 5.79038 45068
32.202579 4.1682234 5.7612972 45069
32.527397 4.2020111 5.7199574 45070
32.870087 4.237659 5.6708188 45071
33.220531 4.2741132 5.6202736 45072
33.558231 4.3092413 5.5806503 45073
42.788803 5.2694273 5.0216966 45097
42.807667 5.2713885 5.2078609 45098
23.647951 3.5072598 6.3362193 45400
24.222101 3.5725212 6.3862972 45404
24.398863 3.592613 6.3735056 45405
24.594376 3.6148362 6.3465762 45406
24.787407 3.6367774 6.3236222 45407
24.962561 3.6566865 6.3173013 45408
25.138128 3.6766427 6.3122215 45409
25.307909 3.695941 6.3134112 45410
25.509081 3.7188075 6.2908154 45411
25.685896 3.7389052 6.289566 45412
25.881845 3.761178 6.2747455 45413
26.046928 3.7799425 6.2859225 45414
26.243765 3.802316 6.2738175 45415
26.422136 3.8225908 6.2777224 45416
26.610363 3.8439858 6.2756486 45417
26.827599 3.8686781 6.2533178 45418
27.045414 3.8934367 6.2325978 45419
27.260605 3.9178965 6.215867 45420
27.479548 3.9427829 6.19837 45421
27.705482 3.9684641 6.1778049 45422
27.928772 3.9938445 6.1612587 45423
28.168812 4.0211291 6.1347904 45424
28.412745 4.0488563 6.1078281 45425
28.663851 4.0773983 6.0781307 45426
28.918903 4.1063895 6.048068 45427
29.174646 4.1354589 6.0199423 45428
29.45409 4.167222 5.978045 45429
29.727736 4.1983261 5.9427638 45430
29.99551 4.2287636 5.9140167 45431
30.263983 4.2592797 5.8873186 45432
30.529812 4.2894955 5.8648634 45433
30.816317 4.3220615 5.8314009 45434
31.073456 4.3512893 5.8195739 45435
31.32781 4.3802009 5.8118443 45436
31.609625 4.4122338 5.7890139 45437
31.86512 4.4412751 5.7852645 45438
32.165115 4.4753747 5.7561669 45439
32.445499 4.5072446 5.7419024 45440
32.733299 4.539958 5.7256565 45441
33.042202 4.5750694 5.6993079 45442
33.375774 4.6129851 5.6610909 45443
33.675903 4.6471 5.6457381 45444
41.014954 5.4813032 5.0627751 45463
41.23872 5.5067372 5.1445298 45464
41.502014 5.536665 5.2092299 45465
41.884377 5.5801268 5.2203493 45466
42.697174 5.6725144 5.0359874 45467
42.784729 5.682466 5.1905785 45468
23.628094 3.7208896 6.3219814 45770
24.177639 3.7883551 6.3929214 45774
24.33596 3.8077915 6.395525 45775
24.494602 3.8272676 6.3992267 45776
24.674957 3.8494089 6.3861575 45777
24.858843 3.8719838 6.37184 45778
25.015495 3.8912156 6.3815775 45779
25.200228 3.9138947 6.3697853 45780
25.397823 3.9381528 6.3493276 45781
25.57107 3.9594214 6.3501935 45782
25.757162 3.9822674 6.3424006 45783
25.949959 4.0059361 6.3310328 45784
26.184086 4.0346789 6.2892952 45785
26.381107 4.058867 6.2784796 45786
26.600756 4.0858321 6.2521882 45787
26.833712 4.1144314 6.2179213 45788
27.080091 4.1446786 6.1758552 45789
27.288889 4.1703119 6.1641459 45790
27.536652 4.2007289 6.1256533 45791
27.752993 4.2272882 6.1125002 45792
27.998884 4.2574759 6.0799642 45793
28.219584 4.2845702 6.067831 45794
28.437557 4.3113298 6.0596404 45795
28.665789 4.3393493 6.0461993 45796
28.897827 4.3678355 6.0321884 45797
29.123863 4.3955851 6.0244379 45798
29.35697 4.4242029 6.0138807 45799
29.580719 4.4516716 6.0117669 45800
29.814844 4.4804144 6.0046663 45801
30.089245 4.5141015 5.9728951 45802
30.347754 4.5458374 5.9541731 45803
30.626875 4.5801044 5.9243832 45804
30.903372 4.614049 5.8989029 45805
31.190611 4.6493125 5.8691192 45806
31.539076 4.6920919 5.803236 45807
31.875105 4.733345 5.7485695 45808
32.20533 4.7738857 5.7007513 45809
32.502567 4.8103766 5.6763773 45810
32.827698 4.8502917 5.6377506 45811
33.146847 4.8894725 5.6057854 45812
33.425793 4.9237175 5.6007953 45813
42.738811 6.0670433 4.9858685 45837
42.746941 6.0680408 5.1772251 45838
23.580011 3.9350808 6.4705448 46141
24.230431 4.0209751 6.4547606 46145
24.406885 4.0442777 6.4427547 46146
24.574629 4.0664296 6.4396687 46147
24.755003 4.09025 6.4276085 46148
24.975809 4.1194096 6.3840032 46149
25.160315 4.1437755 6.3721972 46150
25.373152 4.1718826 6.3392315 46151
25.580421 4.1992545 6.3128152 46152
25.816349 4.2304111 6.2656851 46153
26.046797 4.2608442 6.2252507 46154
26.246572 4.2872267 6.210988 46155
26.453152 4.3145075 6.193325 46156
26.653946 4.3410239 6.1820149 46157
26.836201 4.3650923 6.1865869 46158
27.041073 4.392148 6.1757469 46159
27.249628 4.4196897 6.1640368 46160
27.43947 4.4447603 6.1680255 46161
27.655375 4.4732723 6.1546178 46162
27.862135 4.500577 6.149807 46163
28.069347 4.5279412 6.1465168 46164
28.293211 4.5575051 6.1332345 46165
28.537119 4.5897155 6.1078892 46166
28.775145 4.6211491 6.0889416 46167
29.043205 4.656549 6.0514445 46168
29.338272 4.6955156 5.9980412 46169
29.621069 4.7328615 5.9558606 46170
29.907972 4.77075 5.913651 46171
30.169205 4.8052483 5.891284 46172
30.437719 4.8407083 5.866538 46173
30.69026 4.8740587 5.8547177 46174
30.946705 4.9079251 5.8426566 46175
31.193674 4.9405398 5.8389812 46176
31.45122 4.9745507 5.8307881 46177
31.746342 5.0135245 5.8012981 46178
32.018574 5.0494752 5.7887979 46179
32.332008 5.090868 5.7533741 46180
32.669998 5.1355028 5.7059174 46181
32.98848 5.1775613 5.6734571 46182
42.674343 6.4566741 4.9890347 46207
42.693291 6.4591761 5.1753979 46208
23.549368 4.1660786 6.4631562 46511
24.189978 4.257041 6.4552836 46515
24.387461 4.2850828 6.4253192 46516
24.609938 4.3166733 6.37638 46517
24.808708 4.3448973 6.3494234 46518
25.020344 4.3749485 6.3138213 46519
25.223398 4.4037809 6.2873244 46520
25.402302 4.429184 6.2823119 46521
25.59713 4.4568486 6.2661533 46522
25.776896 4.4823742 6.263773 46523
25.963301 4.5088425 6.2577634 46524
26.13759 4.5335908 6.2628751 46525
26.312216 4.5583863 6.2692266 46526
26.487169 4.5832286 6.2768183 46527
26.700439 4.613512 6.2568293 46528
26.904741 4.6425214 6.2455888 46529
27.138216 4.6756735 6.2144837 46530
27.343576 4.7048335 6.2063808 46531
27.607147 4.742259 6.1575632 46532
27.852234 4.77706 6.1247625 46533
28.11738 4.8147092 6.0799174 46534
28.363899 4.8497138 6.05093 46535
28.601345 4.8834295 6.030683 46536
28.839388 4.9172301 6.012228 46537
29.06168 4.9487944 6.0068703 46538
29.291006 4.9813571 5.9986792 46539
29.484684 5.0088582 6.0167537 46540
29.744576 5.0457611 5.9918933 46541
29.995207 5.0813494 5.9756308 46542
30.239798 5.1160798 5.9656496 46543
30.5348 5.157968 5.9249263 46544
30.850618 5.2028127 5.8735499 46545
31.190746 5.2511091 5.8096485 46546
31.508425 5.2962174 5.7633452 46547
31.803448 5.338109 5.7343369 46548
32.075603 5.3767533 5.7223177 46549
32.355114 5.4164424 5.7082214 46550
32.625069 5.4547744 5.7024908 46551
32.909164 5.4951143 5.6906147 46552
33.224525 5.5398941 5.6625786 46553
42.648888 6.8780971 4.9716153 46577
42.660667 6.8797698 5.1614604 46578
23.569016 4.3943267 6.4108758 46881
24.254988 4.49826 6.3653803 46885
24.440454 4.5263605 6.3461518 46886
24.61121 4.5522318 6.3410282 46887
24.791527 4.5795517 6.3294992 46888
24.944696 4.6027589 6.3419967 46889
25.119656 4.6292677 6.3379655 46890
25.291924 4.6553679 6.3376803 46891
25.464554 4.6815238 6.3386197 46892
25.646873 4.7091475 6.3333731 46893
25.829603 4.7368331 6.3294406 46894
26.040922 4.7688508 6.3048301 46895
26.265396 4.8028607 6.2720709 46896
26.496834 4.8379269 6.2361631 46897
26.741615 4.8750138 6.1923957 46898
26.964951 4.9088521 6.1672068 46899
27.192081 4.9432654 6.1413169 46900
27.435797 4.9801912 6.1053333 46901
27.61936 5.0080032 6.1157742 46902
27.809668 5.0368371 6.1228709 46903
28.022886 5.0691423 6.1151237 46904
28.207483 5.0971112 6.1296897 46905
28.434538 5.1315126 6.1158257 46906
28.678398 5.1684604 6.0922956 46907
28.929413 5.2064919 6.0660958 46908
29.220352 5.2505732 6.0148635 46909
29.518734 5.2957816 5.9614358 46910
29.811426 5.3401284 5.9147744 46911
30.085161 5.3816023 5.8836088 46912
30.316572 5.4166636 5.8829961 46913
30.565044 5.4543104 5.8732567 46914
30.814062 5.4920397 5.8654056 46915
31.050257 5.5278258 5.8680224 46916
31.330423 5.5702748 5.8447442 46917
31.628052 5.6153688 5.8130636 46918
31.976929 5.6682281 5.7522163 46919
32.330189 5.7217517 5.6920595 46920
32.687843 5.7759404 5.6326456 46921
32.978642 5.8199997 5.6171727 46922
42.640415 7.2838764 4.9455972 46947
42.659492 7.2867665 5.1323929 46948
42.677662 7.2895193 5.3190289 46949
23.545048 4.6307731 6.393137 47251
24.181982 4.7337365 6.3893046 47255
24.348888 4.7607179 6.3853579 47256
24.513136 4.7872686 6.3851438 47257
24.659424 4.8109169 6.4013224 47258
24.851854 4.8420243 6.3806133 47259
25.020237 4.8692441 6.3814077 47260
25.198221 4.898016 6.3758984 47261
25.404463 4.931356 6.3493052 47262
25.648556 4.9708147 6.2945867 47263
25.871679 5.0068836 6.2589321 47264
26.09861 5.0435681 6.2225108 47265
26.30427 5.0768142 6.2048082 47266
26.501026 5.1086202 6.1958709 47267
26.69824 5.140501 6.1883764 47268
26.886408 5.1709189 6.1894903 47269
27.0686 5.2003713 6.1967168 47270
27.267067 5.2324543 6.1934562 47271
27.472363 5.2656412 6.1869588 47272
27.703781 5.303051 6.1633248 47273
27.932592 5.3400397 6.1437569 47274
28.207184 5.3844285 6.093668 47275
28.498812 5.4315715 6.034265 47276
28.755642 5.4730892 6.0021582 47277
28.983852 5.5099807 5.9923635 47278
29.219112 5.5480113 5.9797931 47279
29.418867 5.5803027 5.9935431 47280
29.63209 5.6147709 5.9998903 47281
29.888557 5.65623 5.9791908 47282
30.165483 5.7009964 5.9473314 47283
30.46303 5.7490964 5.9045792 47284
30.804619 5.8043156 5.8360982 47285
31.130592 5.8570108 5.7810516 47286
31.410704 5.9022923 5.7583861 47287
31.644556 5.9400954 5.767489 47288
31.895617 5.9806805 5.7678556 47289
32.157272 6.0229778 5.7638817 47290
32.456623 6.0713692 5.7391515 47291
32.81089 6.1286383 5.6838908 47292
42.635521 7.7168345 5.1105247 47318
42.635742 7.7168694 5.3055692 47319
23.516657 4.8459835 6.3821588 47621
24.065462 4.9398007 6.4534454 47625
24.246975 4.97083 6.4363661 47626
24.410765 4.9988294 6.4359131 47627
24.608419 5.0326185 6.4086876 47628
24.806656 5.0665069 6.3829207 47629
25.020815 5.103117 6.3460531 47630
25.25104 5.1424732 6.2982965 47631
25.472765 5.180377 6.2597384 47632
25.673485 5.2146897 6.2401409 47633
25.84363 5.2437754 6.2465949 47634
26.014091 5.2729158 6.2542577 47635
26.187998 5.3026447 6.2607026 47636
26.371656 5.3340411 6.2611423 47637
26.574614 5.3687358 6.2485023 47638
26.784393 5.4045973 6.232584 47639
27.016914 5.4443464 6.2016115 47640
27.275566 5.4885626 6.1535234 47641
27.554192 5.5361934 6.0933557 47642
27.782475 5.5752182 6.0726562 47643
27.995275 5.6115956 6.0652642 47644
28.169865 5.6414418 6.0870886 47645
28.396427 5.680172 6.0735397 47646
28.587847 5.7128944 6.0867138 47647
28.828375 5.7540126 6.0673847 47648
29.09234 5.7991371 6.0341663 47649
29.379932 5.8483005 5.9873681 47650
29.714312 5.9054623 5.9117861 47651
29.987246 5.9521198 5.8806977 47652
30.204773 5.9893055 5.888907 47653
30.45248 6.031651 5.8791838 47654
30.680811 6.0706835 5.8842974 47655
30.91622 6.1109262 5.8868418 47656
31.225515 6.1637998 5.8443394 47657
31.582512 6.2248278 5.7746792 47658
31.927156 6.2837443 5.7162719 47659
32.252594 6.3393779 5.6731143 47660
32.511406 6.3836212 5.673914 47661
32.787628 6.4308405 5.6664243 47662
33.047451 6.4752569 5.6712704 47663
40.928947 7.8225851 5.113626 47684
41.108189 7.8532257 5.2177086 47685
41.308666 7.8874965 5.312952 47686
41.537651 7.926641 5.3963089 47687
23.542936 5.0707345 6.3200426 47991
23.526663 5.067801 6.4716773 47992
24.022734 5.157217 6.4519439 47995
24.197931 5.188796 6.4400172 47996
24.397825 5.2248263 6.4089322 47997
24.634834 5.2675471 6.3488612 47998
24.836075 5.3038206 6.3209009 47999
25.050163 5.3424096 6.2843833 48000
25.228027 5.3744693 6.2794442 48001
25.403212 5.4060459 6.2782712 48002
25.557102 5.4337845 6.2956486 48003
25.717424 5.4626822 6.3091798 48004
25.906057 5.4966826 6.3018456 48005
26.088873 5.529635 6.3007469 48006
26.344242 5.575665 6.245419 48007
26.587877 5.6195798 6.2016654 48008
26.863857 5.6693249 6.1359 48009
27.074251 5.7072482 6.1221275 48010
27.243834 5.7378149 6.1405931 48011
27.445547 5.7741733 6.1368108 48012
27.625305 5.8065743 6.1508341 48013
27.834232 5.844233 6.1452994 48014
28.046833 5.8825541 6.1390152 48015
28.330936 5.9337635 6.0839729 48016
28.632122 5.9880514 6.0197802 48017
28.892052 6.0349035 5.9873352 48018
29.123373 6.0765986 5.9771004 48019
29.348677 6.1172094 5.9730763 48020
29.574455 6.1579056 5.9707494 48021
29.794123 6.1975002 5.9745235 48022
30.060352 6.2454877 5.9493227 48023
30.363605 6.3001485 5.9022832 48024
30.727383 6.3657188 5.8187904 48025
31.039154 6.4219151 5.7725105 48026
31.278463 6.4650502 5.7755141 48027
31.511538 6.5070615 5.7845602 48028
31.758419 6.5515614 5.786973 48029
32.062885 6.606441 5.7558427 48030
32.435493 6.6736026 5.6857281 48031
42.549706 8.4966717 5.0884004 48058
42.564388 8.4993181 5.2771697 48059
23.555582 5.3061619 6.2659798 48361
23.462334 5.2884364 6.4859753 48362
24.005428 5.3916702 6.4248075 48365
24.213606 5.4312415 6.3848157 48366
24.446674 5.4755445 6.3259645 48367
24.619856 5.5084634 6.3196611 48368
24.781254 5.5391426 6.3246999 48369
24.933786 5.5681367 6.3384094 48370
25.092699 5.5983429 6.3481822 48371
25.276527 5.633286 6.3391962 48372
25.448435 5.6659627 6.3414302 48373
25.657902 5.7057791 6.315413 48374
25.911524 5.7539887 6.2567592 48375
26.169142 5.802958 6.1976347 48376
26.383793 5.8437595 6.1743155 48377
26.564457 5.8781013 6.179019 48378
26.732857 5.910111 6.1945777 48379
26.923655 5.9463787 6.1947203 48380
27.1085 5.9815149 6.2009773 48381
27.319159 6.0215578 6.189816 48382
27.568634 6.0689793 6.1522565 48383
27.876497 6.1274996 6.0749135 48384
28.137234 6.1770611 6.0345445 48385
28.343937 6.2163525 6.0350909 48386
28.547823 6.2551079 6.0394473 48387
28.729397 6.2896218 6.0611286 48388
28.950245 6.3316016 6.0571804 48389
29.230268 6.3848295 6.0147424 48390
29.560165 6.4475379 5.9412489 48391
29.864883 6.5054603 5.8879981 48392
30.114567 6.5529208 5.874331 48393
30.335127 6.5948458 5.8821278 48394
30.549459 6.6355872 5.8958955 48395
30.823862 6.6877465 5.8726892 48396
31.138857 6.747622 5.8260789 48397
31.51144 6.8184447 5.7460361 48398
31.835005 6.8799491 5.7004762 48399
32.088997 6.9282289 5.7012429 48400
32.340111 6.9759617 5.7060261 48401
32.622032 7.0295501 5.6942477 48402
41.33239 8.6852512 5.0415626 48425
41.31908 8.6827211 5.2395287 48426
41.419041 8.7017221 5.3836799 48427
23.465511 5.5052495 6.4397149 48732
24.207212 5.6530237 6.3470998 48736
24.352434 5.6819572 6.3624334 48737
24.51606 5.7145581 6.3635321 48738
24.670902 5.7454085 6.3733644 48739
24.856543 5.7823949 6.3591633 48740
25.024279 5.815814 6.3613057 48741
25.223099 5.8554263 6.3398027 48742
25.490335 5.9086699 6.2654157 48743
25.730715 5.9565625 6.2152238 48744
25.909771 5.9922371 6.2157407 48745
26.086082 6.0273652 6.2199802 48746
26.250227 6.0600691 6.2351546 48747
26.427177 6.095324 6.2418828 48748
26.617044 6.1331525 6.2403378 48749
26.854675 6.1804976 6.2045817 48750
27.137354 6.2368178 6.1376095 48751
27.401934 6.2895322 6.0869288 48752
27.625908 6.334156 6.0686083 48753
27.802479 6.3693352 6.0867357 48754
27.992136 6.4071221 6.0969219 48755
28.198208 6.4481797 6.097054 48756
28.424063 6.4931784 6.0850725 48757
28.715179 6.5511794 6.0296068 48758
29.033167 6.6145349 5.9584694 48759
29.277304 6.6631761 5.9411712 48760
29.495901 6.7067285 5.9434729 48761
29.698545 6.7471027 5.958426 48762
29.934355 6.7940845 5.9530058 48763
30.233242 6.8536344 5.9081025 48764
30.592422 6.9251966 5.8267159 48765
30.899761 6.9864302 5.7825127 48766
31.141516 7.0345964 5.783308 48767
31.357092 7.0775476 5.8028574 48768
31.639772 7.1338677 5.7820435 48769
31.990076 7.2036614 5.7217617 48770
32.378315 7.2810135 5.6415319 48771
34.846596 7.7727871 5.4995527 48779
42.47979 9.2936049 5.0444531 48798
42.505348 9.2986965 5.2287264 48799
23.466032 5.7500868 6.3889027 49102
24.098942 5.8827415 6.3896332 49106
24.243687 5.9130788 6.4047318 49107
24.406797 5.9472661 6.4055929 49108
24.588465 5.9853425 6.3924599 49109
24.822388 6.0343719 6.3379517 49110
25.054073 6.082932 6.2877331 49111
25.277344 6.1297283 6.246737 49112
25.455143 6.1669941 6.2445021 49113
25.605532 6.1985145 6.2656665 49114
25.765408 6.2320237 6.2805462 49115
25.947298 6.2701473 6.2795453 49116
26.163902 6.315546 6.2532978 49117
26.399893 6.3650084 6.2142749 49118
26.668009 6.4212041 6.1531811 49119
26.883465 6.466363 6.1345344 49120
27.080507 6.5076618 6.1316676 49121
27.268459 6.5470552 6.1372952 49122
27.42495 6.579855 6.1676116 49123
27.658178 6.6287384 6.1434112 49124
27.933632 6.6864719 6.0910544 49125
28.23242 6.7490969 6.0248342 49126
28.470999 6.7991018 6.0041895 49127
28.671413 6.8411074 6.0124917 49128
28.865705 6.8818297 6.0267677 49129
29.079805 6.9267039 6.0290885 49130
29.359499 6.9853263 5.9886861 49131
29.721684 7.0612388 5.8954277 49132
29.99333 7.1181741 5.8663454 49133
30.213081 7.1642327 5.8741446 49134
30.423336 7.2083011 5.8900728 49135
30.693413 7.2649078 5.8689904 49136
31.046999 7.3390179 5.7967987 49137
31.414965 7.4161415 5.7189999 49138
31.647429 7.4648643 5.7302361 49139
31.893646 7.5164704 5.734901 49140
32.17717 7.5758953 5.7186923 49141
34.788265 8.123167 5.4862785 49149
42.460293 9.731184 5.0078125 49168
42.471661 9.7335663 5.198967 49169
23.421692 5.966815 6.3785014 49472
23.990553 6.091495 6.4332094 49476
24.158882 6.1283889 6.427628 49477
24.348736 6.1699996 6.4054823 49478
24.602747 6.2256727 6.3316979 49479
24.827333 6.2748966 6.2850108 49480
25.009954 6.3149228 6.2750149 49481
25.153217 6.3463221 6.2986593 49482
25.299715 6.3784308 6.3208137 49483
25.483381 6.4186859 6.3144917 49484
25.68294 6.4624238 6.2972927 49485
25.929569 6.5164795 6.2451334 49486
26.198816 6.5754914 6.1779699 49487
26.40653 6.621017 6.1609578 49488
26.577158 6.6584144 6.1741586 49489
26.741774 6.6944942 6.1933327 49490
26.935013 6.7368474 6.1924372 49491
27.169796 6.7883058 6.1624742 49492
27.475077 6.855216 6.0830112 49493
27.72093 6.9091005 6.0500116 49494
27.913166 6.9512343 6.058064 49495
28.096136 6.9913363 6.0743985 49496
28.30188 7.0364304 6.0761456 49497
28.537045 7.0879726 6.0590868 49498
28.863308 7.1594815 5.9809446 49499
29.145267 7.2212801 5.9366579 49500
29.349985 7.266149 5.9477916 49501
29.574617 7.3153825 5.9472384 49502
29.796427 7.3639979 5.9505758 49503
30.094109 7.4292421 5.9056101 49504
30.48473 7.5148568 5.8025656 49505
30.73484 7.569675 5.7948899 49506
30.939173 7.614459 5.8189478 49507
31.193523 7.6702065 5.8128123 49508
31.508266 7.7391906 5.7708559 49509
31.940563 7.8339391 5.6584511 49510
32.183712 7.8872309 5.6675687 49511
32.417221 7.9384103 5.6847115 49512
34.410744 8.3753405 5.4872117 49518
42.440849 10.13534 4.9700699 49538
42.452358 10.137861 5.161541 49539
42.47007 10.141743 5.3495493 49540
23.443155 6.2026529 6.44626 49843
24.166861 6.3683529 6.3709621 49847
24.401745 6.4221315 6.3110189 49848
24.558876 6.4581089 6.3185544 49849
24.704161 6.4913726 6.3372498 49850
24.858774 6.526773 6.349453 49851
25.028919 6.5657296 6.3503199 49852
25.236206 6.6131902 6.3227568 49853
25.502544 6.674171 6.2500601 49854
25.748257 6.7304292 6.1965599 49855
25.90498 6.7663126 6.2154307 49856
26.071239 6.8043795 6.2281594 49857
26.231539 6.8410816 6.2468801 49858
26.429596 6.8864288 6.238081 49859
26.694014 6.9469695 6.1809006 49860
26.987638 7.0141983 6.1045494 49861
27.19072 7.0606956 6.0985637 49862
27.37208 7.1022201 6.1104159 49863
27.525137 7.1372638 6.1444507 49864
27.767574 7.1927724 6.1150618 49865
28.026657 7.2520919 6.0760989 49866
28.344217 7.3248005 5.9982109 49867
28.556702 7.3734508 5.997458 49868
28.75671 7.4192452 6.0072885 49869
28.947359 7.4628959 6.0253024 49870
29.209688 7.5229588 5.9959474 49871
29.58337 7.6085172 5.8937578 49872
29.844112 7.6682167 5.8711867 49873
30.049847 7.7153215 5.8875904 49874
30.259178 7.7632499 5.9033747 49875
30.554422 7.8308492 5.8649874 49876
30.952782 7.9220576 5.7629414 49877
31.230007 7.9855313 5.7423849 49878
31.438185 8.0331955 5.7680926 49879
31.706526 8.094635 5.7578349 49880
32.088882 8.1821795 5.679306 49881
34.273544 8.6823797 5.5198722 49888
34.608833 8.7591476 5.4953671 49889
42.434387 10.550886 5.1246247 49909
42.441528 10.552521 5.3178458 49910
23.399157 6.4471574 6.4278145 50213
23.509367 6.4735808 6.4680328 50214
23.935642 6.5757823 6.3734784 50216
24.1394 6.6246347 6.3375673 50217
24.277689 6.6577897 6.3590569 50218
24.428209 6.6938777 6.3713856 50219
24.585028 6.7314749 6.3797474 50220
24.793764 6.7815204 6.3467412 50221
25.045809 6.8419495 6.2805223 50222
25.274305 6.8967323 6.2360411 50223
25.423746 6.9325614 6.2572136 50224
25.601093 6.9750814 6.2574339 50225
25.757181 7.0125041 6.2759576 50226
25.947588 7.0581546 6.2690082 50227
26.228626 7.125535 6.1938081 50228
26.466999 7.1826863 6.1542664 50229
26.671658 7.2317538 6.142684 50230
26.848539 7.2741618 6.1538787 50231
27.009968 7.3128648 6.1780915 50232
27.244282 7.3690424 6.1498213 50233
27.545813 7.4413362 6.0746841 50234
27.807041 7.5039668 6.0319014 50235
27.992489 7.5484285 6.0460992 50236
28.165434 7.5898929 6.0707583 50237
28.389936 7.6437182 6.0605016 50238
28.685764 7.714644 6.0025487 50239
28.998646 7.789659 5.9357939 50240
29.212158 7.8408499 5.9402704 50241
29.413084 7.8890224 5.9551706 50242
29.650148 7.9458594 5.9475036 50243
30.002018 8.0302219 5.8656001 50244
30.32556 8.1077919 5.8059783 50245
30.538408 8.158823 5.821847 50246
30.754881 8.2107239 5.8371902 50247
31.067448 8.2856627 5.7928572 50248
31.450392 8.3774757 5.7069368 50249
31.718346 8.4417181 5.6971083 50250
31.946926 8.4965219 5.7142119 50251
34.497044 9.1079235 5.5067611 50259
42.38102 10.998139 5.0980611 50279
42.402481 11.003284 5.2850533 50280
23.398954 6.6831989 6.3737288 50583
24.009939 6.8357987 6.394392 50587
24.156668 6.8724456 6.4079704 50588
24.348764 6.920424 6.3846874 50589
24.601803 6.9836235 6.3125935 50590
24.822468 7.0387368 6.2699656 50591
24.99519 7.0818768 6.2687874 50592
25.134718 7.116725 6.2960482 50593
25.286627 7.1546659 6.3144379 50594
25.506338 7.2095413 6.2801337 50595
25.776031 7.2769003 6.208631 50596
26.018867 7.3375511 6.1610026 50597
26.184902 7.3790207 6.1753135 50598
26.323181 7.4135571 6.2123117 50599
26.517756 7.4621539 6.207521 50600
26.750359 7.5202494 6.1758604 50601
27.052776 7.5957813 6.0943847 50602
27.290056 7.655045 6.0642996 50603
27.448921 7.6947231 6.093987 50604
27.639669 7.7423644 6.101768 50605
27.853039 7.7956557 6.0949416 50606
28.175415 7.876173 6.0123963 50607
28.422062 7.9377761 5.9866977 50608
28.611547 7.9851022 6.0033422 50609
28.788433 8.0292816 6.0303135 50610
29.065664 8.0985231 5.98985 50611
29.43438 8.1906137 5.8899145 50612
29.68742 8.2538128 5.8717532 50613
29.875896 8.3008871 5.8990273 50614
30.097267 8.3561773 5.9061069 50615
30.47958 8.451664 5.8098307 50616
30.794168 8.5302362 5.7614012 50617
31.000917 8.5818739 5.7852621 50618
31.221153 8.6368799 5.8022795 50619
31.61064 8.7341595 5.7146649 50620
34.328091 9.4128733 5.5544925 50629
34.6623 9.4963455 5.532228 50630
40.899796 11.054229 5.1625233 50646
41.122276 11.109796 5.2488785 50647
41.500183 11.204182 5.2641912 50648
42.328327 11.411021 5.0746932 50649
42.385319 11.425255 5.2457128 50650
23.35037 6.9147501 6.3590846 50953
23.475088 6.9471898 6.3867054 50954
23.921358 7.0632682 6.4132805 50957
24.145416 7.1215477 6.3607531 50958
24.373266 7.1808133 6.307426 50959
24.571787 7.23245 6.2809815 50960
24.701351 7.266151 6.3134942 50961
24.837065 7.3014507 6.3419099 50962
25.012474 7.3470759 6.3391261 50963
25.286007 7.4182243 6.2589922 50964
25.529934 7.4816718 6.2054663 50965
25.691652 7.523736 6.2194476 50966
25.84437 7.5634594 6.2418346 50967
26.031328 7.6120887 6.2388792 50968
26.252855 7.6697092 6.2110453 50969
26.549774 7.7469406 6.1279368 50970
26.744637 7.797626 6.1250825 50971
26.927372 7.8451567 6.1330709 50972
27.082129 7.8854098 6.1633892 50973
27.328533 7.949502 6.1276011 50974
27.648441 8.0327129 6.0407629 50975
27.871069 8.09062 6.0274644 50976
28.046457 8.13624 6.0499911 50977
28.231657 8.184412 6.0670152 50978
28.500425 8.2543201 6.0270214 50979
28.850283 8.3453217 5.9333682 50980
29.056347 8.398921 5.9423242 50981
29.256311 8.4509335 5.9572392 50982
29.514931 8.5182018 5.9342766 50983
29.884691 8.6143799 5.8394623 50984
30.125328 8.6769714 5.834012 50985
30.323977 8.7286415 5.8582935 50986
30.598261 8.7999849 5.8350983 50987
31.004662 8.9056931 5.7295108 50988
31.241068 8.9671841 5.7364416 50989
31.467979 9.0262051 5.7514515 50990
31.771442 9.1051388 5.720603 50991
34.265308 9.7538137 5.5384288 50999
34.659771 9.8564167 5.4815121 51000
42.317787 11.848329 5.0290508 51019
42.335899 11.853039 5.2183647 51020
23.455351 7.1853347 6.2075324 51323
23.348089 7.1563315 6.4407496 51324
23.932306 7.3142972 6.3466048 51327
24.126253 7.3667383 6.3198519 51328
24.26088 7.4031396 6.3450632 51329
24.422686 7.4468904 6.3485899 51330
24.566721 7.485836 6.3682718 51331
24.783575 7.5444703 6.32933 51332
25.061842 7.6197109 6.2426367 51333
25.246742 7.6697054 6.2343349 51334
25.39539 7.7098985 6.2567267 51335
25.541151 7.7493105 6.2825937 51336
25.767092 7.8104019 6.2466755 51337
26.0462 7.88587 6.1716752 51338
26.270555 7.9465332 6.1418791 51339
26.433384 7.9905605 6.1612873 51340
26.593323 8.0338058 6.1842251 51341
26.806633 8.0914822 6.1684375 51342
27.13343 8.1798449 6.070353 51343
27.341843 8.2361975 6.0629745 51344
27.512836 8.2824316 6.0848136 51345
27.684055 8.3287277 6.1078963 51346
27.966669 8.4051428 6.0526304 51347
28.285212 8.4912729 5.974761 51348
28.47381 8.5422678 5.9915328 51349
28.656282 8.5916061 6.0141683 51350
28.919357 8.6627388 5.9827399 51351
29.286283 8.7619524 5.8829288 51352
29.49931 8.8195515 5.8911238 51353
29.693256 8.8719921 5.9139781 51354
29.95899 8.9438438 5.8908029 51355
30.346001 9.0484877 5.7904258 51356
30.561039 9.1066313 5.8060579 51357
30.796085 9.1701841 5.8106437 51358
31.12031 9.2578516 5.7603803 51359
31.488277 9.3573456 5.6856508 51360
33.898426 10.009022 5.5310984 51368
40.793793 11.87345 5.1125884 51386
41.029415 11.93716 5.1928248 51387
41.546352 12.076934 5.1426811 51388
42.286346 12.27702 4.9938002 51389
42.308086 12.282897 5.1818795 51390
42.332478 12.289493 5.368227 51391
23.389482 7.4024715 6.3443999 51694
23.452026 7.4200053 6.4272475 51695
23.997618 7.572957 6.3701878 51698
24.158569 7.6180787 6.3723979 51699
24.334837 7.6674938 6.3632121 51700
24.583719 7.7372661 6.2953711 51701
24.809378 7.8005276 6.2493668 51702
24.963087 7.8436184 6.2644157 51703
25.110952 7.8850713 6.2854719 51704
25.283405 7.9334168 6.2880239 51705
25.532694 8.0033026 6.2311039 51706
25.785898 8.0742865 6.1737328 51707
25.950642 8.120471 6.1880074 51708
26.097103 8.1615305 6.217803 51709
26.302599 8.2191391 6.203526 51710
26.614342 8.3065338 6.1105862 51711
26.846134 8.3715153 6.0811596 51712
26.9972 8.4138651 6.1141481 51713
27.1735 8.4632893 6.1296678 51714
27.425655 8.5339785 6.0912156 51715
27.763826 8.6287823 5.9929566 51716
27.941645 8.6786327 6.0134516 51717
28.100641 8.7232056 6.0488138 51718
28.313946 8.7830038 6.047143 51719
28.684332 8.886838 5.9377861 51720
28.911785 8.9506025 5.9312267 51721
29.085064 8.9991808 5.9638596 51722
29.342352 9.0713091 5.9408884 51723
29.726391 9.1789713 5.8352108 51724
29.930159 9.2360954 5.8535624 51725
30.140734 9.2951279 5.8691678 51726
30.475546 9.3889904 5.8054924 51727
30.830976 9.4886322 5.7318649 51728
31.030115 9.5444593 5.7619028 51729
31.295223 9.6187801 5.7517576 51730
42.26664 12.694524 5.147058 51760
42.273476 12.696441 5.3417621 51761
23.349747 7.6449213 6.3136187 52063
24.051769 7.8492789 6.3979921 52068
24.341011 7.9334769 6.2932229 52069
24.520498 7.9857259 6.2832246 52070
24.664303 8.0275869 6.3043752 52071
24.823385 8.0738955 6.3141832 52072
25.003962 8.126461 6.3079391 52073
25.306587 8.2145557 6.2053061 52074
25.491444 8.2683668 6.1998801 52075
25.627739 8.3080425 6.2344851 52076
25.791761 8.3557892 6.248415 52077
26.063889 8.4350052 6.1799679 52078
26.349337 8.5180988 6.1042037 52079
26.505552 8.5635729 6.129838 52080
26.658833 8.6081924 6.1589379 52081
26.862198 8.6673927 6.1518297 52082
27.194374 8.7640886 6.0512691 52083
27.405321 8.8254948 6.043242 52084
27.569492 8.8732853 6.0711584 52085
27.768595 8.9312439 6.0752492 52086
28.101173 9.0280571 5.9859357 52087
28.364994 9.1048546 5.9487443 52088
28.514788 9.1484594 5.9939637 52089
28.741362 9.2144146 5.9870467 52090
29.103092 9.3197145 5.8894067 52091
29.331022 9.3860645 5.88662 52092
29.517496 9.4403467 5.9138474 52093
29.801205 9.522934 5.8777223 52094
30.166733 9.6293392 5.7902918 52095
30.357853 9.6849747 5.8208227 52096
30.58831 9.7520599 5.8274183 52097
31.22747 9.9381189 5.7334447 52099
31.466175 10.007606 5.7420859 52100
37.243328 11.68933 5.4768538 52118
37.26741 11.69634 5.6435504 52119
42.236576 13.142859 5.1022849 52129
42.254131 13.147969 5.2926235 52130
23.379473 7.884284 6.2244143 52429
23.354343 7.8767233 6.3852501 52430
24.102245 8.1017447 6.2933555 52434
24.262968 8.1501017 6.2971454 52435
24.38512 8.1868534 6.3345804 52436
24.549335 8.2362614 6.3380451 52437
24.780146 8.3057051 6.2883477 52438
25.038927 8.3835649 6.2183452 52439
25.186447 8.427949 6.2408113 52440
25.334146 8.4723873 6.2643237 52441
25.527815 8.5306568 6.2526484 52442
25.82303 8.6194782 6.1631823 52443
26.036398 8.6836739 6.1405792 52444
26.185591 8.7285614 6.1694736 52445
26.362764 8.781868 6.1781893 52446
26.630232 8.8623419 6.1201978 52447
26.892351 8.941206 6.0690084 52448
27.055384 8.9902573 6.0940609 52449
27.237398 9.0450201 6.1064801 52450
27.517099 9.1291742 6.0493073 52451
27.81344 9.2183342 5.9830112 52452
27.965366 9.2640438 6.023077 52453
28.171265 9.3259926 6.0260491 52454
28.492014 9.4224968 5.9502749 52455
28.734104 9.4953346 5.9325399 52456
28.912821 9.5491056 5.9607491 52457
29.159084 9.6231985 5.9443445 52458
29.55386 9.7419748 5.8299346 52459
29.733955 9.7961607 5.8634152 52460
29.949795 9.8611002 5.8746543 52461
30.360577 9.9846926 5.7598348 52462
30.584166 10.051964 5.7710629 52463
30.791826 10.114443 5.7945166 52464
34.188774 11.136484 5.5256014 52475
37.679035 12.186601 5.3732638 52485
37.706825 12.194962 5.540463 52486
42.193958 13.545009 5.0646887 52495
42.225658 13.554545 5.2489605 52496
23.311771 8.1064548 6.3537526 52794
23.370811 8.1248255 6.4397855 52795
23.847761 8.2732382 6.3027649 52797
23.98394 8.3156128 6.3254938 52798
24.114334 8.3561878 6.3541942 52799
24.27466 8.4060764 6.3588018 52800
24.549025 8.4914503 6.2701445 52801
24.761414 8.557539 6.2355995 52802
24.902124 8.6013241 6.2616839 52803
25.055077 8.6489182 6.2789817 52804
25.271957 8.7164049 6.246347 52805
25.556444 8.8049278 6.1622429 52806
25.72595 8.8576736 6.1717281 52807
25.858986 8.8990707 6.2111216 52808
26.081221 8.9682226 6.1825786 52809
26.381161 9.0615549 6.0967655 52810
26.564653 9.1186523 6.1025457 52811
26.720562 9.1671658 6.1306877 52812
26.929548 9.2321968 6.1205559 52813
27.260798 9.3352709 6.0221996 52814
27.436663 9.3899956 6.041029 52815
27.600214 9.4408875 6.0702643 52816
27.867918 9.524189 6.0260978 52817
28.183811 9.6224852 5.9503875 52818
28.364456 9.6786966 5.9732199 52819
28.538979 9.7330027 6.0018339 52820
28.904987 9.8468933 5.8995914 52821
29.147581 9.9223804 5.8857212 52822
29.323391 9.977088 5.919404 52823
29.634418 10.07387 5.8637276 52824
29.956028 10.173945 5.8041592 52825
30.146023 10.233066 5.8345203 52826
30.446455 10.32655 5.7944255 52827
31.017099 10.504118 5.7424116 52829
37.097584 12.396179 5.4306312 52848
37.108047 12.399434 5.6047816 52849
42.176632 13.976624 5.0070796 52859
42.197979 13.983267 5.1966729 52860
42.204433 13.985274 5.3924928 52861
23.361122 8.380847 6.2351117 53156
23.35038 8.3773861 6.3833389 53157
23.83235 8.532649 6.3809805 53160
24.009491 8.5897131 6.3691516 53161
24.285179 8.678524 6.2761803 53162
24.45459 8.733099 6.2749195 53163
24.597427 8.7791128 6.2971611 53164
24.776478 8.8367929 6.2909184 53165
25.0343 8.9198484 6.2224712 53166
25.247692 8.9885912 6.1925468 53167
25.391918 9.0350523 6.2198615 53168
25.554554 9.0874434 6.2337837 53169
25.81823 9.1723852 6.1700759 53170
26.073618 9.2546568 6.1156116 53171
26.234556 9.3065014 6.1363654 53172
26.389542 9.3564291 6.1629891 53173
26.683889 9.451251 6.085783 53174
26.911009 9.524416 6.061974 53175
27.085814 9.5807276 6.0791111 53176
27.276487 9.6421518 6.086102 53177
27.617821 9.7521095 5.9853334 53178
27.809635 9.8139009 5.995913 53179
27.973425 9.8666649 6.0281653 53180
28.254272 9.9571371 5.9790363 53181
28.5613 10.056045 5.9144421 53182
28.726278 10.109191 5.9514909 53183
28.96788 10.18702 5.9372272 53184
29.344269 10.308272 5.8335867 53185
29.504011 10.359732 5.8799024 53186
29.747385 10.438132 5.8716278 53187
30.348791 10.631871 5.7868495 53189
30.603718 10.713994 5.7785888 53190
40.859997 14.017975 5.1618762 53219
41.092731 14.092949 5.2466354 53220
42.157867 14.436075 5.1454358 53222
42.161015 14.437088 5.3433104 53223
23.302309 8.608264 6.3546081 53518
24.030724 8.8505354 6.2806935 53522
24.18145 8.9006681 6.2931585 53523
24.311607 8.9439583 6.3241096 53524
24.486622 9.0021677 6.3188844 53525
24.778814 9.0993519 6.2191067 53526
