# .PCD v0.7 - Point Cloud Data file format
VERSION 0.7
FIELDS x y z intensity
SIZE 4 4 4 4
TYPE F F F F
COUNT 1 1 1 1
WIDTH 1331
HEIGHT 1
VIEWPOINT 0 0 0 1 0 0 0
POINTS 1331
DATA ascii
23.726313 2.8629093 3.841439 44273
23.729401 2.8631752 3.995862 44274
23.751158 2.865051 4.1301184 44275
23.783381 2.8678293 4.2529311 44276
23.786518 2.8680995 4.4037895 44277
23.791529 2.8685312 4.5515404 44278
23.809895 2.8701146 4.6850691 44279
23.824568 2.8713794 4.8212004 44280
23.809553 2.8700845 4.9847345 44281
23.839794 2.8726919 5.1038427 44282
23.857706 2.8742359 5.2338333 44283
23.86607 2.8749568 5.3718247 44284
23.897024 2.8776257 5.4878945 44285
23.894936 2.8774452 5.6335807 44286
23.909647 2.8787136 5.7628317 44287
23.935446 2.8809378 5.881216 44288
23.933748 2.8807912 6.023437 44289
23.730841 2.8632944 6.3425322 44290
23.702579 2.8608572 6.5042777 44291
23.847986 2.8733952 6.513607 44292
24.04203 2.8901269 6.4822316 44293
24.221508 2.9056027 6.4652257 44294
24.389286 2.9200697 6.4598117 44295
22.778273 2.9917376 -1.9309967 44606
22.946463 3.0077899 -1.9487849 44607
23.101213 3.0225594 -1.9460384 44608
23.263258 3.0380251 -1.9521134 44609
23.344288 3.0457571 -1.2018095 44613
23.372711 3.0484693 -1.0300816 44614
23.387892 3.0499179 -0.84265208 44615
23.491615 3.0598154 0.030352904 44620
23.511808 3.0617423 0.20045875 44621
23.387833 3.0499084 0.9250102 44624
23.405085 3.0515544 1.0902525 44625
23.43149 3.0540743 1.2430087 44626
23.441429 3.0550227 1.4138842 44627
23.476135 3.0583346 1.5540838 44628
23.55138 3.0655143 2.3489883 44633
23.561689 3.0664978 2.5089803 44634
23.581675 3.0684049 2.6568646 44635
23.587234 3.0689352 2.8192711 44636
23.613384 3.0714307 2.957901 44637
23.616894 3.0717652 3.1197567 44638
23.641205 3.0740852 3.2580125 44639
23.648174 3.0747499 3.4134984 44640
23.670681 3.0768979 3.5513825 44641
23.675697 3.0773764 3.7063425 44642
23.704758 3.0801497 3.8352556 44643
23.727446 3.0823147 3.9697692 44644
23.735258 3.08306 4.1183128 44645
23.747761 3.0842528 4.2609334 44646
23.773525 3.0867114 4.3892703 44647
23.775753 3.0869238 4.5398808 44648
23.78558 3.0878615 4.681818 44649
23.797386 3.0889878 4.8207335 44650
23.816967 3.0908566 4.9511414 44651
23.821287 3.0912685 5.0951314 44652
23.836319 3.0927029 5.2278948 44653
23.862202 3.0951729 5.3495779 44654
23.881514 3.0970156 5.4765873 44655
23.879473 3.0968206 5.6223254 44656
23.882414 3.097101 5.762363 44657
23.90523 3.0992782 5.8834181 44658
23.930305 3.1016712 6.0017066 44659
23.730654 3.0826159 6.318264 44660
23.651545 3.0750649 6.5248666 44661
23.823832 3.0915082 6.5105195 44662
24.020746 3.110302 6.4765511 44663
24.1819 3.1256826 6.4751182 44664
24.37689 3.1442926 6.4464407 44665
23.169226 3.228569 -1.2141567 44982
23.179008 3.2295861 -1.0171614 44983
23.182608 3.2299602 -0.81414366 44984
23.275459 3.2396169 0.072313823 44989
23.373701 3.2498343 0.90861386 44994
23.38846 3.2513692 1.0769843 44995
23.41234 3.2538528 1.2328424 44996
23.422321 3.2548907 1.4037508 44997
23.446684 3.2574248 1.5561304 44998
23.529799 3.2660687 2.3420351 45003
23.540133 3.2671435 2.5020506 45004
23.557453 3.2689447 2.6529136 45005
23.576494 3.270925 2.8006113 45006
23.586468 3.2719622 2.9569046 45007
23.611732 3.27459 3.0953963 45008
23.630667 3.2765594 3.2395647 45009
23.6432 3.2778628 3.3893294 45010
23.66028 3.2796392 3.5330782 45011
23.670912 3.2807448 3.6823652 45012
23.683367 3.2820401 3.8285346 45013
23.708857 3.2846913 3.9602251 45014
23.727932 3.2866752 4.0974617 45015
23.751787 3.2891564 4.2288771 45016
23.763521 3.2903767 4.3714023 45017
23.762981 3.2903202 4.5248852 45018
23.772867 3.2913482 4.6668844 45019
23.796196 3.2937748 4.7947698 45020
23.804359 3.2946236 4.9363322 45021
23.808743 3.2950792 5.0803871 45022
23.820921 3.2963457 5.2159476 45023
23.841009 3.298435 5.3431258 45024
23.848625 3.299227 5.480999 45025
23.861263 3.3005414 5.6132269 45026
23.878992 3.3023853 5.7398834 45027
23.890038 3.303534 5.8717246 45028
23.906229 3.305218 5.9980359 45029
23.697813 3.2835374 6.3225532 45030
23.657707 3.2793651 6.4949188 45031
23.835987 3.2979102 6.4754725 45032
24.020805 3.3171356 6.4520879 45033
24.200106 3.3357868 6.435215 45034
24.37381 3.3538558 6.4247794 45035
23.146553 3.4502842 -1.2291547 45352
23.156401 3.4514031 -1.0321175 45353
23.172058 3.4531827 -0.84500998 45354
23.302162 3.4679708 -0.81083244 45355
23.40258 3.4793832 0.064692117 45360
23.35421 3.4738832 0.89103031 45364
23.386864 3.4775944 1.0379587 45365
23.400656 3.4791617 1.206187 45366
23.408173 3.4800158 1.3802336 45367
23.427444 3.4822061 1.5387638 45368
23.508221 3.4913859 2.3279297 45373
23.521278 3.4928696 2.4850218 45374
23.533304 3.4942362 2.6418538 45375
23.560446 3.4973211 2.7807527 45376
23.575907 3.4990783 2.931251 45377
23.584967 3.5001078 3.0873587 45378
23.584824 3.5000911 3.2519097 45379
23.613739 3.5033774 3.384234 45380
23.628075 3.5050068 3.5308771 45381
23.652542 3.5077875 3.6658006 45382
23.684505 3.5114202 3.7920082 45383
23.690598 3.5121126 3.9437785 45384
23.704121 3.5136492 4.0867467 45385
23.728003 3.5163636 4.2181959 45386
23.708668 3.5141656 4.3916788 45387
23.742123 3.5179679 4.5114803 45388
23.74921 3.5187733 4.6563129 45389
23.766838 3.5207765 4.7897811 45390
23.76639 3.5207253 4.9396386 45391
23.770756 3.5212214 5.0836678 45392
23.803211 3.5249102 5.2000527 45393
23.80879 3.5255439 5.3409071 45394
23.828106 3.5277393 5.4679389 45395
23.846659 3.5298479 5.5948238 45396
23.840879 3.5291903 5.7430296 45397
23.872612 3.5327971 5.8561444 45398
23.868065 3.5322802 6.0011287 45399
23.647951 3.5072598 6.3362193 45400
23.679661 3.5108638 6.4453392 45401
23.863966 3.5318131 6.4208755 45402
24.030725 3.5507681 6.4133706 45403
24.222101 3.5725212 6.3862972 45404
24.398863 3.592613 6.3735056 45405
23.128309 3.6595497 -1.2519987 45722
23.164448 3.6639857 -1.0901142 45723
23.144438 3.6615288 -0.85496873 45724
23.259989 3.6757143 -0.80170995 45725
23.422077 3.6956117 -0.0045776153 45730
23.37233 3.6895022 1.0128475 45735
23.393896 3.6921494 1.1719724 45736
23.406708 3.6937218 1.3400322 45737
23.423559 3.6957903 1.5017339 45738
23.497149 3.7048228 2.300458 45743
23.51298 3.7067659 2.4546733 45744
23.533157 3.7092428 2.6027381 45745
23.544325 3.7106133 2.7594433 45746
23.557169 3.7121899 2.9129431 45747
23.571733 3.7139776 3.0632668 45748
23.57988 3.7149775 3.2191732 45749
23.61986 3.7198853 3.3400242 45750
23.623381 3.7203171 3.4983749 45751
23.645203 3.722996 3.6362901 45752
23.674492 3.7265913 3.765461 45753
23.669552 3.7259846 3.9287221 45754
23.694328 3.7290261 4.0603929 45755
23.709869 3.7309337 4.200408 45756
23.727358 3.7330801 4.3374081 45757
23.732653 3.7337301 4.4854174 45758
23.731308 3.7335646 4.6387095 45759
23.751858 3.7360871 4.7694626 45760
23.748632 3.7356908 4.9221587 45761
23.7675 3.7380068 5.0525045 45762
23.794264 3.7412922 5.1744847 45763
23.79414 3.7412765 5.3208871 45764
23.816444 3.7440147 5.4452815 45765
23.796972 3.7416239 5.6073222 45766
23.826469 3.7452447 5.7232347 45767
23.846436 3.7476957 5.8471103 45768
23.871603 3.7507851 5.9655333 45769
23.628094 3.7208896 6.3219814 45770
23.671785 3.7262533 6.4206195 45771
23.840981 3.7470248 6.409328 45772
24.016634 3.768589 6.3940172 45773
24.177639 3.7883551 6.3929214 45774
24.33596 3.8077915 6.395525 45775
23.137093 3.8766055 -1.0998091 46093
23.143457 3.8774457 -0.89973277 46094
23.206146 3.8857243 -0.77636188 46095
23.377399 3.9083381 0.007834048 46100
23.360325 3.9060826 0.22472109 46101
23.360476 3.906101 0.98511165 46105
23.369368 3.907275 1.1596386 46106
23.384783 3.9093101 1.3246961 46107
23.396521 3.9108601 1.4925272 46108
23.480804 3.9219887 2.2795043 46113
23.512657 3.9261949 2.4159913 46114
23.516951 3.9267616 2.5819492 46115
23.538931 3.9296639 2.7269578 46116
23.546509 3.9306643 2.8864527 46117
23.555752 3.9318845 3.0427258 46118
23.56942 3.9336894 3.1928973 46119
23.604 3.9382555 3.3196507 46120
23.621338 3.9405451 3.463661 46121
23.646044 3.9438074 3.5988476 46122
23.647745 3.9440317 3.7567849 46123
23.667904 3.9466934 3.8944452 46124
23.681616 3.948504 4.0376096 46125
23.697235 3.9505663 4.1777239 46126
23.726084 3.954376 4.303576 46127
23.728687 3.9547193 4.4545336 46128
23.738857 3.9560621 4.5968161 46129
23.762421 3.9591734 4.7249842 46130
23.733572 3.9553635 4.9027333 46131
23.764023 3.9593844 5.0221748 46132
23.767748 3.9598761 5.1661811 46133
23.790894 3.9629326 5.2908354 46134
23.80747 3.9651213 5.4207921 46135
23.820335 3.9668198 5.5532746 46136
23.844151 3.9699647 5.6748147 46137
23.840694 3.9695079 5.8202972 46138
23.86595 3.9728427 5.9388504 46139
23.670425 3.9470212 6.253099 46140
23.580011 3.9350808 6.4705448 46141
23.727814 3.9545994 6.4773388 46142
23.902967 3.9777303 6.4616823 46143
23.991024 3.9893589 6.5224719 46144
24.230431 4.0209751 6.4547606 46145
24.406885 4.0442777 6.4427547 46146
23.117262 4.1047387 -1.124921 46463
23.11178 4.10396 -0.90880525 46464
23.172026 4.112514 -0.78222358 46465
23.240725 4.1222672 -0.064797185 46469
23.259176 4.124887 0.10838331 46470
23.278946 4.1276937 0.27818808 46471
23.328915 4.1347876 0.97640258 46475
23.360786 4.1393127 1.1234215 46476
23.368645 4.1404281 1.2977606 46477
23.395943 4.1443043 1.4474713 46478
23.406742 4.1458373 1.6151818 46479
23.457294 4.1530137 2.262131 46483
23.473249 4.1552792 2.4164982 46484
23.480202 4.1562657 2.5794992 46485
23.512884 4.1609058 2.7127411 46486
23.528589 4.163136 2.8634977 46487
23.543329 4.1652284 3.0140243 46488
23.54351 4.1652541 3.1788602 46489
23.580835 4.1705537 3.3027785 46490
23.603708 4.1738009 3.4410906 46491
23.617456 4.1757526 3.5878658 46492
23.644114 4.1795378 3.7201054 46493
23.65328 4.1808391 3.8693199 46494
23.66708 4.1827984 4.0125952 46495
23.660349 4.1818423 4.1754107 46496
23.680717 4.1847339 4.30971 46497
23.703093 4.187911 4.4410496 46498
23.716148 4.1897645 4.5806088 46499
23.736895 4.1927099 4.7116261 46500
23.736792 4.1926951 4.8618245 46501
23.755871 4.1954041 4.9924507 46502
23.753939 4.1951294 5.1420703 46503
23.771357 4.1976023 5.2722859 46504
23.793816 4.2007909 5.3969126 46505
23.81846 4.2042899 5.5187197 46506
23.821846 4.2047706 5.6592207 46507
23.830248 4.2059631 5.794095 46508
23.817116 4.2040982 5.9473414 46509
23.651514 4.180583 6.2350912 46510
23.549368 4.1660786 6.4631562 46511
23.646128 4.1798177 6.5145206 46512
23.826899 4.2054858 6.4934721 46513
23.981043 4.2273736 6.4970613 46514
24.189978 4.257041 6.4552836 46515
24.387461 4.2850828 6.4253192 46516
23.094667 4.3224735 -1.1469666 46833
23.094057 4.3223805 -0.93715745 46834
23.168734 4.3336949 -0.82956076 46835
23.498552 4.383667 -1.0576985 46836
23.287216 4.351645 -0.17423441 46839
23.286377 4.3515172 0.024336105 46840
23.303999 4.354187 0.1975521 46841
23.3046 4.3542767 0.95834094 46845
23.339052 4.3594961 1.1023678 46846
23.344429 4.3603101 1.2798349 46847
23.353752 4.3617225 1.4508746 46848
23.369692 4.3641372 1.6125227 46849
23.470629 4.3794284 2.3753107 46854
23.475082 4.3801031 2.5414331 46855
23.491821 4.3826389 2.6924968 46856
23.504904 4.3846207 2.8462691 46857
23.516994 4.3864522 2.9997888 46858
23.536238 4.3893676 3.1443212 46859
23.557299 4.3925581 3.2857656 46860
23.577473 4.3956146 3.4270363 46861
23.588509 4.3972864 3.5767457 46862
23.615175 4.4013262 3.7090347 46863
23.621601 4.4022994 3.8611462 46864
23.629843 4.4035478 4.010129 46865
23.651138 4.406774 4.1447191 46866
23.651917 4.4068918 4.2988367 46867
23.67996 4.4111404 4.4246268 46868
23.693068 4.413126 4.5642614 46869
23.708157 4.4154119 4.7009039 46870
23.699516 4.4141026 4.8594356 46871
23.698467 4.4139433 5.0093155 46872
23.739738 4.4201961 5.1178198 46873
23.763031 4.4237247 5.242703 46874
23.759409 4.4231758 5.3918643 46875
23.7782 4.4260225 5.5190935 46876
23.793304 4.4283109 5.6488571 46877
23.807627 4.4304805 5.778439 46878
23.821173 4.4325323 5.907836 46879
23.670797 4.4097486 6.18255 46880
23.569016 4.3943267 6.4108758 46881
23.641954 4.4053779 6.4834599 46882
23.846617 4.4363861 6.4417253 46883
23.979694 4.4565492 6.4637313 46884
24.254988 4.49826 6.3653803 46885
23.08873 4.5570245 -1.1975067 47203
23.088337 4.5569601 -0.98753184 47204
23.131975 4.564014 -0.83842242 47205
23.470964 4.618814 -1.0791979 47206
23.270016 4.5863276 -0.20806374 47209
23.26932 4.5862145 -0.0093732858 47210
23.284578 4.5886812 0.16707796 47211
23.317673 4.5940289 1.0755109 47216
23.320599 4.5945015 1.256128 47217
23.347996 4.5989299 1.4059981 47218
23.387344 4.6052904 1.5405848 47219
23.455236 4.6162639 2.343348 47224
23.449183 4.6152844 2.5214243 47225
23.45529 4.6162715 2.6843486 47226
23.48181 4.6205583 2.8234937 47227
23.515562 4.6260142 2.9537411 47228
23.50787 4.6247702 3.1275547 47229
23.539858 4.6299415 3.2574842 47230
23.551914 4.6318898 3.4075308 47231
23.574007 4.6354609 3.5458348 47232
23.592485 4.6384478 3.6868389 47233
23.59622 4.639051 3.8418982 47234
23.612883 4.6417446 3.98246 47235
23.609095 4.6411314 4.1425867 47236
23.643587 4.6467071 4.26298 47237
23.6661 4.6503463 4.3945312 47238
23.676479 4.6520238 4.5370913 47239
23.705889 4.6567774 4.6599874 47240
23.697433 4.6554103 4.8187103 47241
23.699429 4.6557326 4.9660311 47242
23.706253 4.6568356 5.1075702 47243
23.720877 4.6591992 5.2406745 47244
23.743404 4.6628408 5.3654566 47245
23.753534 4.6644778 5.5009065 47246
23.777472 4.6683474 5.6227059 47247
23.794823 4.6711521 5.7497473 47248
23.808472 4.673358 5.8792882 47249
23.729527 4.6605959 6.0906506 47250
23.545048 4.6307731 6.393137 47251
23.680624 4.6526895 6.4108129 47252
23.843344 4.6789942 6.4059377 47253
23.985395 4.7019572 6.4203548 47254
24.181982 4.7337365 6.3893046 47255
24.348888 4.7607179 6.3853579 47256
23.077402 4.7709103 -1.0268695 47574
23.344345 4.8165431 -0.96610504 47576
23.232708 4.7974577 -0.21218356 47579
23.251699 4.8007035 -0.038479745 47580
23.267054 4.803328 0.13808344 47581
23.298136 4.8086395 1.0501337 47586
23.313923 4.8113379 1.2156101 47587
23.344011 4.8164811 1.362605 47588
23.334488 4.8148527 1.5548525 47589
23.425732 4.8304491 2.3306808 47594
23.435673 4.8321481 2.4910779 47595
23.468584 4.8377738 2.6246893 47596
23.481909 4.8400517 2.7787476 47597
23.488857 4.841239 2.938396 47598
23.502888 4.843637 3.0890114 47599
23.526834 4.8477306 3.227802 47600
23.541729 4.8502765 3.3750975 47601
23.566666 4.8545389 3.5106759 47602
23.574238 4.8558331 3.6632826 47603
23.591909 4.8588533 3.8042104 47604
23.614265 4.8626747 3.9392734 47605
23.621832 4.8639679 4.088305 47606
23.645285 4.8679771 4.2201929 47607
23.636953 4.8665524 4.3827319 47608
23.678486 4.873652 4.4947076 47609
23.682461 4.8743315 4.6427693 47610
23.688353 4.8753381 4.7877746 47611
23.690472 4.8757005 4.9352465 47612
23.688786 4.8754115 5.085146 47613
23.712147 4.879405 5.2101974 47614
23.731867 4.8827758 5.3378458 47615
23.747919 4.8855195 5.4680443 47616
23.774885 4.8901291 5.5873308 47617
23.77475 4.8901057 5.7305822 47618
23.770781 4.8894267 5.8761783 47619
23.786602 4.8921313 6.0029101 47620
23.516657 4.8459835 6.3821588 47621
23.646124 4.8681159 6.4051514 47622
23.790684 4.892828 6.4159651 47623
23.917473 4.9145021 6.4433193 47624
24.065462 4.9398007 6.4534454 47625
24.246975 4.97083 6.4363661 47626
23.071562 4.9857864 -1.0768812 47944
23.173933 5.0042367 -0.19232295 47949
23.180527 5.005425 -0.003055739 47950
23.20311 5.0094953 0.16404259 47951
23.19976 5.0088906 0.3619619 47952
23.284288 5.0241256 1.0144608 47956
23.3002 5.0269933 1.1800724 47957
23.325268 5.0315113 1.3332776 47958
23.339052 5.0339956 1.4984097 47959
23.407589 5.0463476 2.3020513 47964
23.430891 5.0505471 2.4477863 47965
23.450611 5.0541015 2.5962977 47966
23.456003 5.0550728 2.7592714 47967
23.481852 5.059732 2.8985586 47968
23.493326 5.0617995 3.0522509 47969
23.514673 5.0656471 3.1940963 47970
23.532415 5.0688448 3.3386521 47971
23.541031 5.0703974 3.4916229 47972
23.554173 5.0727658 3.6385956 47973
23.571918 5.075964 3.779634 47974
23.588791 5.0790052 3.92048 47975
23.599213 5.0808835 4.0667758 47976
23.617117 5.0841103 4.2043848 47977
23.64543 5.0892134 4.3306174 47978
23.650398 5.0901084 4.4790502 47979
23.657269 5.0913463 4.6244149 47980
23.683167 5.0960145 4.7501817 47981
23.679722 5.0953932 4.9033284 47982
23.681046 5.0956311 5.0506444 47983
23.704514 5.0998611 5.1758633 47984
23.709873 5.1008267 5.3172283 47985
23.728893 5.1042552 5.4448338 47986
23.735485 5.105443 5.5830259 47987
23.752947 5.1085901 5.7102771 47988
23.752012 5.1084213 5.8533173 47989
23.800386 5.1171408 5.9510732 47990
23.542936 5.0707345 6.3200426 47991
23.526663 5.067801 6.4716773 47992
23.685648 5.096458 6.469141 47993
23.841991 5.1246386 6.4703116 47994
24.022734 5.157217 6.4519439 47995
24.197931 5.188796 6.4400172 47996
23.049353 5.2099519 -1.1107931 48314
23.474943 5.2908497 -1.0507903 48317
23.157122 5.2304354 -0.23191592 48319
23.18103 5.2349796 -0.064385511 48320
23.208765 5.2402511 0.096702598 48321
23.158609 5.2307167 0.35383603 48322
23.279383 5.2536721 1.1477355 48327
23.291756 5.2560234 1.3162503 48328
23.313299 5.2601185 1.472375 48329
23.403328 5.2772298 2.2527986 48334
23.410913 5.2786713 2.4164698 48335
23.412109 5.2788982 2.5857198 48336
23.444262 5.2850094 2.7194195 48337
23.44875 5.285862 2.8822381 48338
23.471062 5.290103 3.02437 48339
23.492491 5.2941761 3.1663353 48340
23.502148 5.2960114 3.3196657 48341
23.521767 5.2997403 3.4612331 48342
23.546003 5.304347 3.5968997 48343
23.547337 5.3046002 3.7552106 48344
23.575367 5.3099279 3.8848262 48345
23.591488 5.3129921 4.0256357 48346
23.603945 5.3153596 4.1690536 48347
23.618317 5.3180914 4.3094416 48348
23.645926 5.323339 4.4356861 48349
23.638805 5.3219852 4.5951209 48350
23.659098 5.3258419 4.7265468 48351
23.652901 5.3246636 4.8825564 48352
23.680113 5.3298359 5.0053554 48353
23.669186 5.3277588 5.1634641 48354
23.691931 5.3320818 5.2886333 48355
23.69943 5.3335071 5.4271693 48356
23.732306 5.339756 5.5412965 48357
23.738214 5.340879 5.6794405 48358
23.763838 5.3457489 5.7987165 48359
23.77109 5.3471274 5.9337778 48360
23.555582 5.3061619 6.2659798 48361
23.462334 5.2884364 6.4859753 48362
23.606075 5.3157592 6.4964066 48363
23.803932 5.3533688 6.4611635 48364
24.005428 5.3916702 6.4248075 48365
24.213606 5.4312415 6.3848157 48366
23.028296 5.4181566 -1.1475934 48684
23.034243 5.4193406 -0.94706607 48685
23.439165 5.5000167 -1.0683219 48687
23.165899 5.4455705 -0.30577874 48689
23.16806 5.4460006 -0.10986814 48690
23.200867 5.4525366 0.045141257 48691
23.195566 5.4514799 0.24658076 48692
23.262548 5.4648232 1.1094315 48697
23.25975 5.4642653 1.2963027 48698
23.30957 5.4741912 1.4192119 48699
23.319986 5.4762664 1.5873839 48700
23.369036 5.4860368 2.2362247 48704
23.39518 5.4912457 2.3792629 48705
23.409815 5.4941611 2.533932 48706
23.428797 5.4979429 2.6824927 48707
23.44416 5.5010033 2.8337724 48708
23.450487 5.5022635 2.9935441 48709
23.477425 5.5076303 3.1298344 48710
23.489943 5.5101237 3.2804251 48711
23.509699 5.51406 3.4221489 48712
23.520353 5.5161819 3.572273 48713
23.543829 5.5208592 3.7078969 48714
23.552649 5.5226164 3.8575573 48715
23.560526 5.5241852 4.006947 48716
23.584208 5.528903 4.1391935 48717
23.590277 5.5301123 4.2881012 48718
23.598227 5.5316954 4.4339333 48719
23.616571 5.5353503 4.5684061 48720
23.634106 5.5388436 4.7027063 48721
23.636578 5.5393357 4.8505716 48722
23.652433 5.5424943 4.9844508 48723
23.655987 5.5432019 5.1290359 48724
23.678841 5.5477552 5.2543573 48725
23.689373 5.5498533 5.3903508 48726
23.713625 5.5546846 5.5126953 48727
23.72257 5.5564666 5.6482964 48728
23.736557 5.5592532 5.7783461 48729
23.735058 5.5589542 5.9214344 48730
23.546576 5.5214009 6.2300172 48731
23.465511 5.5052495 6.4397149 48732
23.603243 5.5326905 6.4555726 48733
23.815863 5.5750523 6.4075508 48734
23.903286 5.5924706 6.469449 48735
24.207212 5.6530237 6.3470998 48736
23.019463 5.6565051 -1.0021536 49055
23.378378 5.7317314 -1.0630571 49057
23.129936 5.6796579 -0.33191219 49059
23.144421 5.6826935 -0.15154365 49060
23.169973 5.6880488 0.01295078 49061
23.179638 5.690074 0.19587481 49062
23.150839 5.6840372 0.42486349 49063
23.229834 5.700593 1.0809515 49067
23.247547 5.7043052 1.2436301 49068
23.264204 5.7077961 1.4060657 49069
23.279806 5.7110658 1.5682538 49070
23.342211 5.724144 2.2025311 49074
23.36845 5.7296433 2.3456955 49075
23.369949 5.7299571 2.5152178 49076
23.399626 5.736177 2.652118 49077
23.407064 5.7377357 2.8122771 49078
23.426912 5.7418952 2.9575877 49079
23.448549 5.7464299 3.0998161 49080
23.469309 5.7507806 3.2418714 49081
23.472843 5.7515211 3.4009876 49082
23.483568 5.7537684 3.5511963 49083
23.520834 5.761579 3.6726637 49084
23.527027 5.762877 3.8253064 49085
23.535028 5.7645535 3.9748316 49086
23.569939 5.7718701 4.0959692 49087
23.576183 5.7731786 4.2450619 49088
23.584301 5.7748799 4.3910828 49089
23.597153 5.7775731 4.5312896 49090
23.609144 5.780086 4.6712766 49091
23.611746 5.7806315 4.8192792 49092
23.624847 5.7833767 4.9560351 49093
23.637121 5.7859492 5.0925779 49094
23.645689 5.7877445 5.2316151 49095
23.644733 5.7875443 5.378499 49096
23.674793 5.7938442 5.4955263 49097
23.701277 5.7993951 5.6151767 49098
23.686127 5.7962189 5.771966 49099
23.725775 5.8045287 5.8780451 49100
23.641043 5.7867689 6.0947213 49101
23.466032 5.7500868 6.3889027 49102
23.63043 5.784544 6.3815532 49103
23.792242 5.8184586 6.3779664 49104
23.903553 5.8417888 6.4193721 49105
24.098942 5.8827415 6.3896332 49106
24.243687 5.9130788 6.4047318 49107
23.006636 5.8758616 -1.0587069 49425
23.267017 5.9329305 -0.989779 49427
23.159391 5.9093404 -0.24159075 49430
23.180384 5.9139409 -0.070560291 49431
23.190393 5.9161344 0.11264699 49432
23.122385 5.901228 0.39142171 49433
23.227272 5.9242148 1.2016256 49438
23.259415 5.9312592 1.3460509 49439
23.267544 5.9330406 1.5174987 49440
23.34922 5.9509401 2.3047297 49445
23.372057 5.955945 2.4508445 49446
23.388664 5.9595852 2.6026554 49447
23.398977 5.9618449 2.760083 49448
23.408281 5.9638839 2.9172318 49449
23.421972 5.9668841 3.0683043 49450
23.437416 5.9702687 3.2162492 49451
23.470968 5.977622 3.3438594 49452
23.479187 5.979423 3.497159 49453
23.494665 5.9828153 3.6416302 49454
23.520269 5.9884267 3.7745423 49455
23.531244 5.9908319 3.9214516 49456
23.530186 5.9905992 4.0793576 49457
23.567198 5.9987111 4.1977234 49458
23.569899 5.9993029 4.3495159 49459
23.582907 6.0021534 4.4898963 49460
23.589401 6.0035768 4.6355801 49461
23.592155 6.00418 4.7837367 49462
23.599686 6.0058303 4.9261127 49463
23.614929 6.009171 5.0600595 49464
23.643736 6.0154843 5.180264 49465
23.651661 6.017221 5.3192868 49466
23.667433 6.0206776 5.4500051 49467
23.673706 6.0220518 5.588562 49468
23.693733 6.0264416 5.7135653 49469
23.707176 6.0293875 5.8437252 49470
23.713964 6.0308752 5.9789615 49471
23.421692 5.966815 6.3785014 49472
23.553194 5.9956369 6.3998399 49473
23.699724 6.0277529 6.4090934 49474
23.846512 6.0599251 6.4193602 49475
23.990553 6.091495 6.4332094 49476
24.158882 6.1283889 6.427628 49477
23.007584 6.1029415 -1.1355085 49795
23.144625 6.1343164 -0.29522273 49800
23.165802 6.1391649 -0.12400932 49801
23.188314 6.1443191 0.043862753 49802
23.128159 6.1305451 0.31360105 49803
23.153015 6.1362357 0.47449404 49804
23.229401 6.1537232 1.1312784 49808
23.249025 6.1582165 1.2910956 49809
23.254807 6.1595397 1.4657644 49810
23.326904 6.1760459 2.2658072 49815
23.334026 6.1776757 2.4297433 49816
23.371901 6.1863475 2.5581741 49817
23.385046 6.1893563 2.7128592 49818
23.413265 6.1958175 2.8498349 49819
23.413773 6.1959333 3.015667 49820
23.440212 6.2019863 3.1522899 49821
23.435982 6.2010179 3.3203859 49822
23.449736 6.2041664 3.4680622 49823
23.473518 6.2096114 3.6041098 49824
23.493732 6.2142391 3.7428524 49825
23.504818 6.2167768 3.8898983 49826
23.528856 6.2222805 4.0226369 49827
23.540966 6.2250528 4.166441 49828
23.549389 6.2269812 4.3127985 49829
23.570951 6.2319179 4.4450202 49830
23.586088 6.235383 4.5826211 49831
23.597561 6.2380095 4.7227697 49832
23.596804 6.2378359 4.8736348 49833
23.617949 6.2426767 5.0023775 49834
23.618265 6.2427492 5.1499553 49835
23.643579 6.2485447 5.2729325 49836
23.647951 6.2495456 5.4146099 49837
23.668871 6.2543349 5.5399761 49838
23.668673 6.2542892 5.683825 49839
23.690989 6.2593985 5.8061914 49840
23.715538 6.2650185 5.9258151 49841
23.521349 6.2205567 6.2391849 49842
23.443155 6.2026529 6.44626 49843
23.589182 6.2360873 6.4552703 49844
23.759304 6.2750382 6.4446573 49845
23.852089 6.2962823 6.5019965 49846
24.166861 6.3683529 6.3709621 49847
23.330151 6.4306297 -1.0257446 50168
23.133469 6.3834724 -0.16470984 50171
23.161005 6.3900743 -0.0029036219 50172
23.175169 6.3934698 0.17419413 50173
23.121229 6.380537 0.43422425 50174
23.202597 6.400043 1.269714 50179
23.231466 6.4069643 1.417331 50180
23.30179 6.4238234 2.2212582 50185
23.332775 6.4312515 2.3588703 50186
23.341768 6.4334073 2.5198452 50187
23.360357 6.4378638 2.6688426 50188
23.370008 6.4401774 2.8263621 50189
23.375978 6.4416084 2.9864962 50190
23.383617 6.4434395 3.1434329 50191
23.414619 6.4508719 3.2742198 50192
23.436693 6.4561639 3.4135063 50193
23.449726 6.4592886 3.5611811 50194
23.45636 6.4608784 3.7142897 50195
23.48958 6.468843 3.8388655 50196
23.491646 6.4693375 3.9943194 50197
23.517736 6.4755931 4.1242528 50198
23.531902 6.4789886 4.2652235 50199
23.5368 6.4801631 4.4143033 50200
23.563286 6.4865127 4.5409975 50201
23.566431 6.4872661 4.6895823 50202
23.557302 6.4850774 4.8488088 50203
23.578503 6.49016 4.9776649 50204
23.590366 6.4930043 5.1145167 50205
23.612898 6.4984059 5.2403584 50206
23.634699 6.5036325 5.3660822 50207
23.629721 6.5024385 5.5157275 50208
23.647062 6.5065956 5.6437407 50209
23.66366 6.5105748 5.771594 50210
23.679512 6.5143752 5.8992858 50211
23.527058 6.4778233 6.176116 50212
23.399157 6.4471574 6.4278145 50213
23.509367 6.4735808 6.4680328 50214
23.738482 6.5285125 6.4057603 50215
23.935642 6.5757823 6.3734784 50216
24.1394 6.6246347 6.3375673 50217
22.968952 6.5758176 -1.0420852 50536
23.31505 6.6622577 -0.27546322 50542
23.268826 6.650712 -0.0200586 50543
23.097107 6.6078224 0.38862395 50544
23.131121 6.6163173 0.53735399 50545
23.196999 6.6327696 1.2037793 50549
23.22608 6.6400328 1.3516474 50550
23.246552 6.6451454 1.5083899 50551
23.305155 6.6597805 2.3212297 50556
23.319563 6.6633782 2.4764931 50557
23.348896 6.6707048 2.6139853 50558
23.369411 6.675828 2.7600954 50559
23.370293 6.6760478 2.9263012 50560
23.383545 6.6793575 3.0777218 50561
23.412052 6.6864772 3.211659 50562
23.420774 6.6886554 3.3655181 50563
23.442154 6.6939945 3.5048563 50564
23.449009 6.6957064 3.6582103 50565
23.474142 6.7019835 3.7915061 50566
23.487442 6.7053051 3.935925 50567
23.488768 6.7056355 4.0913115 50568
23.516956 6.712676 4.2185011 50569
23.510859 6.7111526 4.3788891 50570
23.537432 6.7177892 4.5057468 50571
23.557634 6.7228346 4.6380043 50572
23.554405 6.7220278 4.7920003 50573
23.553053 6.7216902 4.9429111 50574
23.573601 6.7268214 5.0717974 50575
23.579063 6.7281857 5.2140322 50576
23.603804 6.7343645 5.3372002 50577
23.622063 6.7389245 5.4656138 50578
23.630877 6.7411256 5.601851 50579
23.63888 6.7431245 5.7378511 50580
23.643148 6.7441902 5.876245 50581
23.646589 6.745049 6.0143652 50582
23.398954 6.6831989 6.3737288 50583
23.547558 6.720314 6.3805218 50584
23.732027 6.7663875 6.3574009 50585
23.857492 6.7977238 6.3869681 50586
24.009939 6.8357987 6.394392 50587
24.156668 6.8724456 6.4079704 50588
22.958437 6.8128214 -1.1140071 50906
23.022142 6.82939 -0.38134679 50910
23.038671 6.8336887 -0.20359659 50911
23.061352 6.8395882 -0.035437282 50912
22.982317 6.8190298 0.25933042 50913
23.093578 6.8479695 0.31254619 50914
23.103024 6.8504262 0.49226758 50915
23.188498 6.8726568 1.3194737 50920
23.216724 6.8799982 1.4673344 50921
23.278652 6.8961043 2.2780466 50926
23.31163 6.9046817 2.4129605 50927
23.317352 6.9061704 2.5770047 50928
23.335314 6.9108415 2.7261794 50929
23.347012 6.9138837 2.8809404 50930
23.355055 6.915976 3.0383246 50931
23.386351 6.9241157 3.1695614 50932
23.392521 6.9257207 3.3264635 50933
23.414011 6.9313097 3.4659727 50934
23.41828 6.9324198 3.6223366 50935
23.443501 6.9389796 3.7557924 50936
23.462423 6.9439015 3.8947508 50937
23.46945 6.9457288 4.0447259 50938
23.500542 6.9538155 4.1693425 50939
23.505819 6.9551878 4.3188615 50940
23.512974 6.9570484 4.4653263 50941
23.541731 6.9645281 4.5895295 50942
23.555656 6.9681501 4.7273383 50943
23.540401 6.9641819 4.8921709 50944
23.575344 6.9732704 5.00775 50945
23.575348 6.9732709 5.1556869 50946
23.58592 6.9760203 5.2925644 50947
23.598558 6.9793077 5.4265432 50948
23.607515 6.981637 5.5629749 50949
23.630178 6.9875317 5.6859441 50950
23.657972 6.994761 5.8035398 50951
23.670485 6.9980149 5.9341722 50952
23.35037 6.9147501 6.3590846 50953
23.475088 6.9471898 6.3867054 50954
23.593988 6.9781165 6.4203138 50955
23.760456 7.0214162 6.4136405 50956
23.921358 7.0632682 6.4132805 50957
24.145416 7.1215477 6.3607531 50958
22.917177 7.0398331 -0.32917836 51280
23.001259 7.0625672 -0.23882502 51281
23.04594 7.0746489 -0.098469011 51282
23.065287 7.0798793 0.072798409 51283
23.073679 7.0821481 0.2561464 51284
23.100649 7.0894399 0.41458449 51285
23.10672 7.0910811 0.5973286 51286
23.184959 7.1122351 1.2462862 51290
23.198112 7.1157908 1.4124529 51291
23.255768 7.1313787 2.2301705 51296
23.278357 7.1374855 2.3770177 51297
23.297403 7.1426358 2.5266132 51298
23.302273 7.1439519 2.6905482 51299
23.327398 7.1507449 2.8309855 51300
23.338303 7.1536927 2.985703 51301
23.364363 7.1607389 3.1229169 51302
23.386904 7.1668339 3.2628655 51303
23.386913 7.1668363 3.425441 51304
23.407677 7.1724496 3.5649731 51305
23.419395 7.1756177 3.712811 51306
23.441195 7.1815119 3.8491571 51307
23.434593 7.1797266 4.0133386 51308
23.471281 7.1896462 4.1325355 51309
23.48226 7.1926146 4.2766824 51310
23.495155 7.1961012 4.4178281 51311
23.515621 7.2016344 4.5505066 51312
23.518404 7.2023869 4.6994486 51313
23.520271 7.2028909 4.8480835 51314
23.541109 7.2085247 4.9774346 51315
23.541235 7.2085586 5.1255279 51316
23.563356 7.21454 5.251822 51317
23.579006 7.218771 5.383338 51318
23.605429 7.2259154 5.5040421 51319
23.599314 7.2242613 5.6537671 51320
23.612633 7.2278624 5.7846975 51321
23.639786 7.2352042 5.9023399 51322
23.455351 7.1853347 6.2075324 51323
23.348089 7.1563315 6.4407496 51324
23.490078 7.1947236 6.4534693 51325
23.676729 7.2451921 6.4286928 51326
23.932306 7.3142972 6.3466048 51327
24.126253 7.3667383 6.3198519 51328
22.995293 7.2919788 -0.31712601 51651
23.023188 7.2997985 -0.15476681 51652
23.032953 7.302536 0.02907205 51653
23.058693 7.3097515 0.191 51654
23.066128 7.3118348 0.37423867 51655
23.084757 7.3170571 0.54183012 51656
23.187252 7.3457894 1.3459673 51661
23.194473 7.3478131 1.5180947 51662
23.251368 7.3637614 2.1590776 51666
23.261101 7.3664899 2.3208716 51667
23.293493 7.3755703 2.45609 51668
23.298645 7.3770146 2.6203127 51669
23.313377 7.3811445 2.7726235 51670
23.319164 7.3827662 2.933351 51671
23.3561 7.3931203 3.0592923 51672
23.378851 7.3994985 3.1995077 51673
23.389944 7.4026079 3.350961 51674
23.397387 7.4046936 3.5049918 51675
23.409327 7.408041 3.6530879 51676
23.414881 7.4095979 3.8065612 51677
23.455259 7.420917 3.9233518 51678
23.442484 7.4173355 4.0930991 51679
23.481354 7.4282317 4.2096858 51680
23.483353 7.428792 4.3621769 51681
23.506798 7.4353642 4.4923592 51682
23.487339 7.4299088 4.6634545 51683
23.52039 7.4391737 4.7823024 51684
23.527285 7.4411063 4.9255109 51685
23.539005 7.4443922 5.0630593 51686
23.567043 7.4522519 5.1842818 51687
23.57147 7.4534926 5.3268075 51688
23.575039 7.454493 5.4690518 51689
23.586424 7.457684 5.6030736 51690
23.617323 7.4663463 5.7184601 51691
23.627216 7.4691195 5.8521457 51692
23.557428 7.4495544 6.0559688 51693
23.389482 7.4024715 6.3443999 51694
23.452026 7.4200053 6.4272475 51695
23.676722 7.4829965 6.3692451 51696
23.795483 7.5162902 6.404871 51697
23.997618 7.572957 6.3701878 51698
24.158569 7.6180787 6.3723979 51699
22.979486 7.5371537 -0.39156663 52020
22.997925 7.542521 -0.21652584 52021
23.010357 7.5461392 -0.035561036 52022
23.026501 7.5508385 0.13892853 52023
23.051357 7.5580735 0.30086049 52024
23.067764 7.5628495 0.47178143 52025
23.083075 7.567306 0.64243555 52026
23.148584 7.5863743 1.3042538 52030
23.163609 7.5907474 1.4675692 52031
23.249372 7.6157117 2.2508178 52036
23.24785 7.6152678 2.4242904 52037
23.26894 7.6214066 2.5711915 52038
23.283836 7.6257429 2.7237065 52039
23.300451 7.630579 2.873101 52040
23.318825 7.6359272 3.0194046 52041
23.341679 7.6425796 3.1597912 52042
23.3556 7.6466322 3.308568 52043
23.374033 7.6519971 3.4514403 52044
23.388884 7.6563201 3.5969467 52045
23.402855 7.6603866 3.742234 52046
23.407713 7.6618004 3.8956933 52047
23.425404 7.6669497 4.0349174 52048
23.439499 7.6710525 4.1767316 52049
23.452744 7.6749082 4.3183303 52050
23.476305 7.6817665 4.4487166 52051
23.487906 7.6851425 4.5899215 52052
23.484594 7.6841788 4.7445116 52053
23.505753 7.6903377 4.8743501 52054
23.503471 7.6896729 5.0256286 52055
23.540129 7.7003436 5.1389804 52056
23.553308 7.7041798 5.2737117 52057
23.548479 7.7027736 5.4241915 52058
23.571541 7.709487 5.5478554 52059
23.588123 7.714314 5.6766782 52060
23.580744 7.7121654 5.8262887 52061
23.619078 7.7233238 5.9338288 52062
23.349747 7.6449213 6.3136187 52063
23.456276 7.6759315 6.3579397 52064
23.609915 7.7206554 6.3618789 52065
23.752026 7.7620239 6.3771281 52066
23.793444 7.7740808 6.4796968 52067
24.051769 7.8492789 6.3979921 52068
22.963591 7.7591729 -0.46114182 52386
22.977444 7.76334 -0.27965334 52387
22.997393 7.7693419 -0.1077452 52388
23.013796 7.7742767 0.06699945 52389
23.038889 7.781826 0.22918756 52390
23.050623 7.785356 0.40648386 52391
23.078566 7.7937632 0.56213242 52392
23.150389 7.8153706 1.4007149 52397
23.229507 7.8391728 2.1940465 52402
23.243933 7.8435125 2.3502207 52403
23.257387 7.8475609 2.5061469 52404
23.280443 7.8544974 2.6502345 52405
23.278749 7.8539867 2.8201225 52406
23.307957 7.8627744 2.9551539 52407
23.320309 7.8664904 3.1072495 52408
23.337105 7.8715439 3.2533963 52409
23.361122 7.8787694 3.3908288 52410
23.359911 7.8784046 3.5535367 52411
23.379477 7.8842907 3.6933866 52412
23.392738 7.8882809 3.8386598 52413
23.410622 7.893661 3.9781334 52414
23.424917 7.8979616 4.1201978 52415
23.446678 7.9045091 4.2537651 52416
23.439837 7.9024501 4.4146733 52417
23.471109 7.911859 4.53688 52418
23.476448 7.9134645 4.6835451 52419
23.483719 7.9156518 4.8272138 52420
23.50993 7.9235373 4.9517384 52421
23.507042 7.9226685 5.1030183 52422
23.528889 7.9292412 5.2299032 52423
23.52998 7.9295692 5.3752747 52424
23.556061 7.9374156 5.4965272 52425
23.567045 7.9407206 5.6308622 52426
23.57725 7.9437904 5.7649832 52427
23.601204 7.9509974 5.8858566 52428
23.379473 7.884284 6.2244143 52429
23.354343 7.8767233 6.3852501 52430
23.47513 7.913064 6.4172621 52431
23.628428 7.9591866 6.4219995 52432
23.784981 8.0062885 6.4253006 52433
24.102245 8.1017447 6.2933555 52434
22.93947 7.9906216 -0.52963549 52750
22.960802 7.9972587 -0.3572318 52751
22.971342 8.0005388 -0.17269008 52752
22.997715 8.0087442 -0.010055793 52753
23.005934 8.011302 0.17389524 52754
23.025251 8.017312 0.34220189 52755
23.048445 8.0245295 0.50416905 52756
23.06068 8.0283356 0.67808503 52757
23.128906 8.0495644 1.3347967 52761
23.143379 8.0540676 1.4983503 52762
23.223852 8.0791063 2.2857699 52767
23.22706 8.0801039 2.4535818 52768
23.250271 8.087326 2.5978711 52769
23.259388 8.0901632 2.7564242 52770
23.2941 8.1009636 2.8859596 52771
23.298698 8.1023951 3.046916 52772
23.315706 8.107686 3.193305 52773
23.326441 8.1110268 3.3451617 52774
23.35248 8.1191282 3.4798138 52775
23.364151 8.1227598 3.6284053 52776
23.350367 8.1184702 3.8019426 52777
23.384794 8.1291828 3.9248452 52778
23.40753 8.1362572 4.0588102 52779
23.421202 8.1405106 4.200923 52780
23.428476 8.1427746 4.3483171 52781
23.440435 8.1464949 4.489965 52782
23.476732 8.1577892 4.6068745 52783
23.481497 8.1592712 4.7535992 52784
23.496658 8.1639891 4.889246 52785
23.502539 8.1658182 5.0327549 52786
23.516092 8.1700363 5.1679773 52787
23.523153 8.1722326 5.3083162 52788
23.54084 8.1777363 5.4378166 52789
23.552042 8.181222 5.5724263 52790
23.579784 8.1898537 5.6911049 52791
23.583696 8.1910706 5.830575 52792
23.514088 8.1694107 6.0345941 52793
23.311771 8.1064548 6.3537526 52794
23.370811 8.1248255 6.4397855 52795
23.588247 8.1924849 6.3882051 52796
23.847761 8.2732382 6.3027649 52797
23.98394 8.3156128 6.3254938 52798
24.114334 8.3561878 6.3541942 52799
22.939651 8.2450886 -0.43735659 53113
22.952913 8.2493601 -0.2556335 53114
22.98683 8.2602863 -0.10196017 53115
23.002731 8.2654085 0.073098145 53116
23.005253 8.2662201 0.26318282 53117
23.021313 8.2713928 0.43457645 53118
23.048666 8.2802048 0.59051424 53119
23.127859 8.3057146 1.4183406 53124
23.186348 8.3245535 2.2335749 53129
23.213284 8.33323 2.3754044 53130
23.231499 8.339098 2.5257981 53131
23.238258 8.3412752 2.6875243 53132
23.246658 8.3439808 2.8460684 53133
23.280684 8.3549414 2.9757102 53134
23.295261 8.3596373 3.1252401 53135
23.300882 8.3614473 3.283051 53136
23.332493 8.3716307 3.4123094 53137
23.336287 8.3728523 3.5696211 53138
23.352711 8.3781433 3.7126155 53139
23.365555 8.3822803 3.8581953 53140
23.383015 8.3879042 3.9979949 53141
23.399649 8.3932629 4.13761 53142
23.40164 8.3939037 4.2907786 53143
23.413801 8.3978214 4.4326806 53144
23.413975 8.3978767 4.5852499 53145
23.446814 8.4084549 4.7049546 53146
23.467754 8.4152012 4.8354216 53147
23.476665 8.4180708 4.976491 53148
23.481913 8.4197617 5.1199865 53149
23.486309 8.4211769 5.263206 53150
23.506989 8.4278383 5.3902674 53151
23.526953 8.4342699 5.5171986 53152
23.540451 8.4386177 5.6492372 53153
23.550306 8.4417915 5.7836905 53154
23.568083 8.4475183 5.9101443 53155
23.361122 8.380847 6.2351117 53156
23.35038 8.3773861 6.3833389 53157
23.561487 8.4453926 6.3371205 53158
23.714485 8.4946795 6.3433404 53159
23.83235 8.532649 6.3809805 53160
24.009491 8.5897131 6.3691516 53161
22.913334 8.4789057 -0.50615126 53474
22.934057 8.4857988 -0.33346668 53475
22.951263 8.4915209 -0.15793967 53476
22.972212 8.4984875 0.011176193 53477
22.982313 8.5018473 0.19230321 53478
23.001074 8.5080872 0.36090863 53479
23.028648 8.5172577 0.5171169 53480
23.023001 8.515379 0.71250933 53481
23.109112 8.5440178 1.3463193 53485
23.18705 8.5699387 2.1425171 53490
23.209068 8.577261 2.2905362 53491
23.214499 8.5790672 2.4557636 53492
23.232038 8.5849009 2.6062391 53493
23.243389 8.5886755 2.7622488 53494
23.264397 8.5956621 2.9065473 53495
23.279215 8.6005907 3.0563707 53496
23.303837 8.6087799 3.1946189 53497
23.303461 8.608655 3.3581512 53498
23.315569 8.6126804 3.507262 53499
23.315933 8.6128016 3.6673265 53500
23.356152 8.6261778 3.7852364 53501
23.360188 8.6275206 3.9392343 53502
23.371525 8.6312904 4.0846376 53503
23.381998 8.6347742 4.2297988 53504
23.397146 8.6398115 4.3692417 53505
23.425377 8.6492014 4.4948683 53506
23.42779 8.6500025 4.6448159 53507
23.446114 8.6560974 4.7782617 53508
23.474924 8.6656799 4.9008069 53509
23.471996 8.6647053 5.0526824 53510
23.482328 8.6681414 5.1909084 53511
23.497549 8.6732035 5.3236136 53512
23.5063 8.6761141 5.4614053 53513
23.53146 8.6844816 5.58324 53514
23.515646 8.6792221 5.7414846 53515
23.542212 8.6880569 5.8603687 53516
23.385408 8.6359034 6.1417317 53517
23.302309 8.608264 6.3546081 53518
23.451525 8.6578932 6.3621531 53519
23.559959 8.6939592 6.406333 53520
23.694857 8.7388258 6.4284749 53521
24.030724 8.8505354 6.2806935 53522
22.893101 8.7404327 -0.59626323 53835
22.916517 8.7484922 -0.4263536 53836
22.929228 8.7528658 -0.24432695 53837
22.948034 8.7593393 -0.071827851 53838
22.960878 8.7637596 0.10654215 53839
22.989719 8.7736855 0.26326436 53840
23.002836 8.7782001 0.43806326 53841
23.019791 8.7840347 0.60651428 53842
23.106504 8.813879 1.4240311 53847
23.175753 8.8377113 2.2264578 53852
23.197073 8.8450489 2.3745639 53853
23.201792 8.846673 2.539803 53854
23.22127 8.8533764 2.6874712 53855
23.234581 8.8579578 2.8406703 53856
23.236345 8.8585644 3.0050189 53857
23.250423 8.86341 3.1548357 53858
23.276997 8.8725557 3.2902985 53859
23.29203 8.8777304 3.4368937 53860
23.311596 8.8844633 3.5776725 53861
23.319485 8.8871784 3.7294261 53862
23.334635 8.8923922 3.8725781 53863
23.351679 8.8982582 4.0127583 53864
23.362411 8.9019527 4.1582484 53865
23.364008 8.9025011 4.3117051 53866
23.397915 8.9141712 4.4321508 53867
23.403358 8.9160452 4.5796824 53868
23.407923 8.9176159 4.7269287 53869
23.420027 8.9217815 4.865829 53870
23.442583 8.9295444 4.9938221 53871
23.450294 8.9321985 5.1349945 53872
23.462856 8.9365215 5.2706213 53873
23.466101 8.9376383 5.4139395 53874
23.497084 8.9483013 5.5307717 53875
23.501623 8.9498634 5.6710343 53876
23.522627 8.9570932 5.7954631 53877
23.525604 8.9581175 5.9352551 53878
23.266695 8.8690033 6.3057704 53879
23.293306 8.8781624 6.4208083 53880
23.485855 8.9444351 6.3910227 53881
23.711245 9.0220108 6.3349285 53882
23.704954 9.019845 6.4791312 53883
24.03743 9.1342802 6.3355713 53884
22.893679 8.9828835 -0.50407255 54197
22.909067 8.9883404 -0.32485306 54198
22.918486 8.9916801 -0.13977645 54199
22.946133 9.0014849 0.020475853 54200
22.960592 9.0066128 0.19580954 54201
22.973946 9.0113478 0.37085539 54202
22.993587 9.0183134 0.53653157 54203
23.00972 9.0240345 0.70498919 54204
23.151875 9.0744448 2.1591613 54213
23.160408 9.0774708 2.3220315 54214
23.186213 9.0866222 2.4644036 54215
23.198071 9.0908279 2.6210063 54216
23.206341 9.0937605 2.7802086 54217
23.245396 9.1076107 2.9049284 54218
23.241236 9.1061354 3.0750315 54219
23.249365 9.1090174 3.230608 54220
23.267275 9.1153688 3.3746529 54221
23.289726 9.1233311 3.5129049 54222
23.305967 9.1290903 3.6565838 54223
23.318651 9.1335888 3.8028367 54224
23.344109 9.1426163 3.9350455 54225
23.352388 9.1455526 4.0836396 54226
23.354284 9.146224 4.2374396 54227
23.374582 9.1534233 4.3718481 54228
23.380257 9.1554346 4.5196609 54229
23.387838 9.158123 4.6644921 54230
23.408541 9.1654654 4.7956328 54231
23.431311 9.1735401 4.9239631 54232
23.430838 9.1733713 5.073451 54233
23.44644 9.1789045 5.2067313 54234
23.475475 9.1892014 5.3266678 54235
23.489624 9.1942196 5.4596529 54236
23.488722 9.1938992 5.605485 54237
23.515667 9.203455 5.7250581 54238
23.530447 9.2086964 5.8548903 54239
23.324757 9.1357489 6.1796217 54240
23.229919 9.1021137 6.4025569 54241
23.491816 9.1949949 6.311904 54242
23.634953 9.2457571 6.3269649 54243
23.707912 9.2716322 6.4033613 54244
23.924818 9.3485565 6.3576741 54245
22.875874 9.2202263 -0.58884239 54558
22.886766 9.2242031 -0.40314597 54559
22.913315 9.2338972 -0.23927929 54560
22.931595 9.240572 -0.066413805 54561
22.941492 9.2441864 0.11534536 54562
22.964903 9.2527342 0.27854988 54563
22.992222 9.2627106 0.43549839 54564
23.001301 9.2660255 0.61339331 54565
23.014221 9.2707424 0.78495264 54566
23.057737 9.2866325 1.4652842 54570
23.144758 9.318408 2.2456806 54575
23.160378 9.324111 2.3999224 54576
23.182911 9.3323393 2.5453122 54577
23.196712 9.3373785 2.699121 54578
23.209591 9.342082 2.8526857 54579
23.218901 9.3454809 3.0088391 54580
23.23525 9.3514509 3.1562402 54581
23.250729 9.3571033 3.3034327 54582
23.262655 9.3614578 3.4532089 54583
23.271002 9.3645048 3.6055241 54584
23.289263 9.3711729 3.7464666 54585
23.314861 9.3805208 3.8789425 54586
23.331528 9.3866062 4.0195565 54587
23.336416 9.3883915 4.1709237 54588
23.351414 9.3938675 4.3111005 54589
23.37389 9.4020748 4.442944 54590
23.367887 9.3998823 4.6016383 54591
23.391562 9.4085274 4.7304068 54592
23.389355 9.4077215 4.8831115 54593
23.428345 9.4219589 4.9955812 54594
23.438574 9.4256945 5.1345458 54595
23.439522 9.4260397 5.2811794 54596
23.468002 9.4364395 5.4013052 54597
23.47304 9.4382792 5.5422287 54598
23.480127 9.4408665 5.6802883 54599
23.492168 9.4452629 5.8129406 54600
23.466002 9.4357071 5.9787579 54601
23.239241 9.3529005 6.3201885 54602
23.396109 9.4101849 6.3214283 54603
23.509604 9.4516287 6.3617215 54604
23.628954 9.4952126 6.3977475 54605
23.956654 9.6148787 6.2571573 54606
22.842846 9.4695578 -0.6627214 54919
22.868301 9.4791403 -0.49523956 54920
22.885525 9.4856243 -0.31873792 54921
22.882353 9.4844294 -0.11802643 54922
22.914227 9.4964294 0.036498569 54923
22.932989 9.5034924 0.20608662 54924
22.945808 9.5083179 0.38148007 54925
22.957525 9.5127287 0.5565787 54926
22.987928 9.5241747 0.70735002 54927
23.123293 9.5751324 2.1680658 54936
23.141758 9.5820827 2.3197618 54937
23.156715 9.5877142 2.4741244 54938
23.165518 9.5910273 2.6339722 54939
23.194378 9.6018925 2.7707427 54940
23.196058 9.6025248 2.9357753 54941
23.21529 9.6097651 3.0806885 54942
23.228352 9.6146812 3.231041 54943
23.256571 9.6253052 3.3643608 54944
23.254496 9.6245232 3.5282359 54945
23.281092 9.6345358 3.6612232 54946
23.290691 9.6381493 3.8106747 54947
23.296688 9.6404066 3.9626143 54948
23.326363 9.6515779 4.0896406 54949
23.327923 9.6521654 4.2438288 54950
23.342327 9.657588 4.3841405 54951
23.355928 9.6627073 4.5242467 54952
23.3715 9.6685696 4.6614599 54953
23.375149 9.6699429 4.8091722 54954
23.403109 9.6804686 4.9326587 54955
23.413551 9.6843996 5.0719514 54956
23.411924 9.6837873 5.2215476 54957
23.437714 9.6934958 5.3446112 54958
23.437279 9.6933317 5.4910512 54959
23.4702 9.7057247 5.6060562 54960
23.465328 9.7038908 5.7545853 54961
23.488302 9.7125397 5.8770971 54962
23.219528 9.6113529 6.2573318 54963
23.243034 9.6202021 6.3757496 54964
23.390734 9.675806 6.3854823 54965
23.675608 9.7830544 6.2782254 54966
23.818449 9.8368301 6.2957611 54967
23.946825 9.8851604 6.3267555 54968
22.846689 9.715271 -0.58033568 55280
22.861805 9.7211208 -0.40044945 55281
22.866179 9.7228136 -0.20861648 55282
22.888647 9.7315092 -0.041557107 55283
22.92465 9.7454424 0.10706697 55284
22.935381 9.7495956 0.28586397 55285
22.962154 9.7599573 0.44324139 55286
22.965803 9.7613688 0.62748349 55287
22.990576 9.770956 0.78442365 55288
23.100967 9.8136787 2.0939655 55296
23.12225 9.8219156 2.2430913 55297
23.134869 9.8267984 2.4006548 55298
23.156973 9.8353529 2.546519 55299
23.165131 9.8385105 2.7064557 55300
23.18548 9.846386 2.851918 55301
23.199699 9.8518887 3.0028503 55302
23.218336 9.8591013 3.1479268 55303
23.217476 9.8587675 3.3124087 55304
23.24238 9.8684063 3.4486592 55305
23.250391 9.8715067 3.6014276 55306
23.270992 9.8794794 3.7401118 55307
23.279964 9.8829517 3.8896325 55308
23.307108 9.8934565 4.0197387 55309
23.317141 9.8973389 4.1660914 55310
23.331808 9.9030161 4.3067741 55311
23.340164 9.906249 4.4526496 55312
23.328316 9.9016638 4.6170559 55313
23.379147 9.9213352 5.020278 55316
23.388969 9.9251375 5.159606 55317
23.412098 9.9340878 5.2856078 55318
23.409073 9.9329166 5.4349561 55319
23.42506 9.9391041 5.5658112 55320
23.440325 9.9450121 5.6964984 55321
23.466318 9.9550714 5.8167524 55322
23.339453 9.9059706 6.0722213 55323
23.210854 9.8561983 6.3261929 55324
23.369812 9.9177189 6.3261018 55325
23.561039 9.9917307 6.2995701 55326
23.68873 10.041151 6.3294959 55327
23.836985 10.09853 6.342926 55328
22.828558 9.9696875 -0.68245029 55640
22.839268 9.9739532 -0.49605522 55641
22.853586 9.9796562 -0.31611145 55642
22.854752 9.9801197 -0.12122197 55643
22.895779 9.9964619 0.021620262 55644
22.918966 10.005698 0.18560743 55645
22.93383 10.011619 0.35843495 55646
22.950083 10.018092 0.52798414 55647
22.96283 10.023169 0.70026249 55648
23.099598 10.077645 2.1590269 55657
23.109922 10.081758 2.3198144 55658
23.132267 10.090657 2.4660189 55659
23.14855 10.097143 2.6177518 55660
23.158697 10.101185 2.7749393 55661
23.162645 10.102757 2.9374979 55662
23.199978 10.117628 3.0631826 55663
23.194157 10.115309 3.2336326 55664
23.216619 10.124257 3.3730187 55665
23.235615 10.131823 3.5150325 55666
23.248421 10.136924 3.6623898 55667
23.252274 10.138457 3.8177619 55668
23.271473 10.146105 3.9564044 55669
23.29261 10.154525 4.0921583 55670
23.299324 10.157198 4.2413187 55671
23.329865 10.169363 4.3659229 55672
23.005289 10.040071 5.4276896 55677
23.223852 10.127132 5.3690066 55678
23.403751 10.198793 5.3485489 55679
23.425686 10.20753 5.4746556 55680
23.441261 10.213734 5.6058102 55681
23.447565 10.216245 5.7444925 55682
23.453091 10.218445 5.8829222 55683
23.199413 10.117395 6.2496123 55684
23.291792 10.154193 6.3080111 55685
23.424519 10.207063 6.3318114 55686
23.571901 10.265771 6.344069 55687
