# .PCD v0.7 - Point Cloud Data file format
VERSION 0.7
FIELDS x y z intensity
SIZE 4 4 4 4
TYPE F F F F
COUNT 1 1 1 1
WIDTH 1172
HEIGHT 1
VIEWPOINT 0 0 0 1 0 0 0
POINTS 1172
DATA ascii
0.93707687 0.92064112 -0.14139087 2166899
0.94814456 0.95028841 -0.14874214 2166900
0.95389402 0.96634954 -0.14545742 2166901
0.96113461 0.98624128 -0.14492419 2166902
0.96987742 1.0099992 -0.14708866 2166903
0.97684026 1.0292126 -0.14566442 2166904
0.9829098 1.0461485 -0.14240448 2166905
0.99078637 1.0677364 -0.14237529 2166906
0.9983722 1.0885948 -0.14162154 2166907
1.0047579 1.1063843 -0.13849713 2166908
1.0129641 1.1288698 -0.13853019 2166909
1.0227 1.1553105 -0.14111005 2166910
1.0284963 1.1716286 -0.13644041 2166911
1.0373425 1.1958166 -0.13702594 2166912
1.0489535 1.2271531 -0.14222249 2166913
1.056605 1.2483029 -0.14026725 2166914
1.0636485 1.2678996 -0.13709451 2166915
1.0737734 1.2954694 -0.13899857 2166916
1.0765109 1.3039724 -0.12822247 2166917
1.053264 1.2452909 -0.074119337 2166918
1.0283418 1.1822016 -0.018041151 2166919
1.0259513 1.1773586 0.00034842675 2166920
1.020725 1.1651587 0.023197791 2166921
1.0179456 1.1592791 0.041900523 2166922
1.0226265 1.1727294 0.048603613 2166923
1.0341871 1.204035 0.044564717 2166924
1.0849708 1.3371779 -0.020317283 2166925
1.1045052 1.389302 -0.035478912 2166926
1.1067725 1.396608 -0.02371663 2166927
1.0986122 1.3768044 0.0038368658 2166928
1.0761724 1.3198279 0.0524843 2166929
-1.8941615 -6.5890412 0.64145124 2167078
-1.8944317 -6.5921721 0.61542684 2167079
-1.9114825 -6.6405358 0.5814966 2167080
-1.9339402 -6.7035255 0.54446596 2167081
-1.9388322 -6.7191896 0.51545686 2167082
-1.9426425 -6.7319517 0.48680642 2167083
-1.9317031 -6.7049036 0.46566027 2167084
-1.9292796 -6.7008386 0.44020003 2167085
0.78487664 0.44210801 -0.14858821 2167587
0.79028785 0.45650041 -0.14812829 2167588
0.79880548 0.47845429 -0.15495954 2167589
0.80254585 0.48881054 -0.15024514 2167590
0.80911791 0.50606459 -0.15212348 2167591
0.81399709 0.51920998 -0.14989766 2167592
0.81773764 0.52958876 -0.14494495 2167593
0.82490945 0.54834282 -0.147798 2167594
0.82807714 0.55733925 -0.14137144 2167595
0.83123624 0.56631756 -0.13489363 2167596
0.84074551 0.59082234 -0.14257465 2167597
0.84593648 0.60478812 -0.1404189 2167598
0.85229409 0.62161946 -0.14072157 2167599
0.86128724 0.64492083 -0.14662181 2167600
0.86650282 0.65898448 -0.14411275 2167601
0.87377524 0.67810339 -0.14590847 2167602
0.88076794 0.69655204 -0.14693157 2167603
0.88659269 0.71214765 -0.14532478 2167604
0.89301485 0.72922295 -0.14484218 2167605
0.89855504 0.74414271 -0.14238542 2167606
0.90499151 0.76127893 -0.14165764 2167607
0.91054064 0.77624321 -0.13897613 2167608
0.91878659 0.79786384 -0.14163281 2167609
0.92464858 0.81362486 -0.13930579 2167610
0.93111652 0.83089256 -0.13806024 2167611
0.93547863 0.84297401 -0.1325224 2167612
0.94528317 0.86850834 -0.13754474 2167613
0.9566288 0.8978762 -0.14529803 2167614
0.9652679 0.92057687 -0.14755087 2167615
0.97117895 0.93654448 -0.14439861 2167616
0.97831511 0.95555788 -0.14343719 2167617
0.98453987 0.97232735 -0.14060996 2167618
0.99322647 0.99521387 -0.14221716 2167619
1.0025444 1.0196866 -0.14477478 2167620
1.0112624 1.042691 -0.14600997 2167621
1.0184468 1.0619047 -0.14426678 2167622
1.0253274 1.0803778 -0.14182083 2167623
1.0325236 1.09965 -0.13978618 2167624
1.0394139 1.1181755 -0.13705562 2167625
1.047871 1.1406162 -0.13690652 2167626
1.0579056 1.1670059 -0.13928396 2167627
1.0651318 1.1864166 -0.13661177 2167628
1.07488 1.2121334 -0.13805826 2167629
1.084013 1.2363362 -0.13823676 2167630
1.0912611 1.2558519 -0.13506407 2167631
1.1000969 1.279349 -0.13435344 2167632
1.1010053 1.283044 -0.12048847 2167633
1.0742074 1.2174218 -0.06182304 2167634
1.0456733 1.147372 -0.0012519476 2167635
1.0409559 1.1368868 0.020571107 2167636
1.0374736 1.1294774 0.040249985 2167637
1.0419718 1.1420634 0.047331538 2167638
1.0438907 1.1481851 0.058470432 2167639
1.0522343 1.1704338 0.059790596 2167640
1.0815661 1.2454109 0.029535826 2167641
1.1310388 1.3710738 -0.030096408 2167642
1.1336913 1.3791515 -0.018846983 2167643
1.1327553 1.3782037 -0.0023051214 2167644
1.1122719 1.3280497 0.042591058 2167645
-1.9404939 -6.5448375 0.64331955 2167794
-1.9376023 -6.5396776 0.61881113 2167795
-1.9643143 -6.6118469 0.58082992 2167796
-2.0004396 -6.7086849 0.5377031 2167797
-2.0012319 -6.7132325 0.51059729 2167798
-2.0019767 -6.7176642 0.48343334 2167799
-1.9921367 -6.6944032 0.46155143 2167800
-1.989642 -6.6903553 0.4360421 2167801
0.81231767 0.45594802 -0.15420084 2168303
0.81644869 0.46693149 -0.15024158 2168304
0.8199966 0.47654697 -0.14487432 2168305
0.82674396 0.49371204 -0.14676894 2168306
0.83058232 0.50402653 -0.14191273 2168307
0.83764249 0.52195549 -0.14423981 2168308
0.84413016 0.53854728 -0.14511913 2168309
0.84826845 0.54959619 -0.14065623 2168310
0.85566068 0.5683527 -0.14326084 2168311
0.86128765 0.58294493 -0.14184709 2168312
0.86394101 0.59049994 -0.13390547 2168313
0.8743515 0.61645478 -0.14253862 2168314
0.88059962 0.63255668 -0.14206058 2168315
0.89046407 0.65726048 -0.14905031 2168316
0.89523202 0.66987556 -0.14514875 2168317
0.90151107 0.68609244 -0.14428863 2168318
0.90719116 0.7008962 -0.14206421 2168319
0.91409189 0.71861774 -0.1422078 2168320
0.92069817 0.73565197 -0.14160155 2168321
0.92670119 0.751261 -0.13964404 2168322
0.93332255 0.76835716 -0.13878874 2168323
0.94425875 0.79576951 -0.14627279 2168324
0.94874841 0.8078056 -0.14090204 2168325
0.95447093 0.82279581 -0.13784246 2168326
0.96143603 0.84076935 -0.1370519 2168327
0.97276324 0.86919951 -0.14439642 2168328
0.97850943 0.88428801 -0.14093353 2168329
0.98675758 0.90538394 -0.14203155 2168330
0.99470639 0.9257797 -0.14238335 2168331
1.0036099 0.94848335 -0.14430565 2168332
1.0128447 0.97200221 -0.14661995 2168333
1.0198865 0.99027205 -0.1447584 2168334
1.0266176 1.0078088 -0.14219165 2168335
1.0362095 1.0322409 -0.14455388 2168336
1.0407287 1.0444832 -0.13777851 2168337
1.0528949 1.0751511 -0.14424422 2168338
1.0593362 1.0920495 -0.14052637 2168339
1.0657787 1.1089629 -0.13668227 2168340
1.0780039 1.1398417 -0.14250769 2168341
1.083496 1.1544924 -0.13672315 2168342
1.091243 1.1745995 -0.13459183 2168343
1.1035235 1.2056806 -0.13976853 2168344
1.1112924 1.2258779 -0.13727219 2168345
1.1206906 1.2500334 -0.13724719 2168346
1.1271708 1.2671434 -0.13232899 2168347
1.1320187 1.2803099 -0.12469091 2168348
1.1074305 1.2221267 -0.070645832 2168349
1.0643592 1.1190397 0.011425521 2168350
1.0598246 1.1093527 0.032650519 2168351
1.0598508 1.1107225 0.046706293 2168352
1.0631477 1.1200334 0.05574917 2168353
1.0667619 1.1301192 0.064354181 2168354
1.0753299 1.1522586 0.065644592 2168355
1.1097785 1.2373984 0.029033648 2168356
1.1629478 1.3682081 -0.033930056 2168357
1.1630166 1.3697873 -0.018795101 2168358
1.1597211 1.3631607 0.0010907827 2168359
1.1380004 1.3115832 0.04689369 2168360
-1.9611753 -6.525034 0.64377922 2168509
-1.9589688 -6.5217342 0.61900616 2168510
-1.9895782 -6.6029806 0.57943851 2168511
-2.0243564 -6.6950483 0.53711325 2168512
-2.0297921 -6.7115378 0.50781924 2168513
-2.0276957 -6.7086134 0.48200727 2168514
-2.025202 -6.7046647 0.45638466 2168515
-2.0226684 -6.7006125 0.43078214 2168516
0.82088935 0.45265251 -0.15386775 2169019
0.82565618 0.46497706 -0.15124942 2169020
0.8324824 0.48209584 -0.15322718 2169021
0.83607954 0.49171969 -0.14775805 2169022
0.84144562 0.50546467 -0.14620312 2169023
0.84622306 0.51784849 -0.14323379 2169024
0.85487241 0.53926545 -0.14870046 2169025
0.85936511 0.55100757 -0.14486761 2169026
0.86355668 0.56205386 -0.14030802 2169027
0.87014967 0.57871532 -0.14084087 2169028
0.87645245 0.59471214 -0.14060666 2169029
0.88306671 0.61145043 -0.14089274 2169030
0.89120853 0.63177806 -0.14423054 2169031
0.89724004 0.64718115 -0.14298438 2169032
0.90236264 0.66046536 -0.13973936 2169033
0.91177088 0.68381047 -0.14515574 2169034
0.91936302 0.70291531 -0.14665271 2169035
0.92666191 0.72134763 -0.14738338 2169036
0.9327383 0.73692232 -0.14551243 2169037
0.93758154 0.74960834 -0.14108117 2169038
0.94273317 0.76302773 -0.13717103 2169039
0.95162004 0.78525174 -0.14042315 2169040
0.95646846 0.79797947 -0.13568228 2169041
0.96538359 0.82030374 -0.13862438 2169042
0.97463155 0.84343314 -0.14198223 2169043
0.97854972 0.85400027 -0.13511252 2169044
0.98877037 0.87946087 -0.13991927 2169045
0.99711716 0.9005155 -0.14101636 2169046
1.005161 0.92087138 -0.1413672 2169047
1.0148071 0.94503587 -0.14444123 2169048
1.02256 0.96473861 -0.1438818 2169049
1.0306423 0.98523748 -0.14373863 2169050
1.0387356 1.0057793 -0.14343496 2169051
1.0468395 1.0263625 -0.14296994 2169052
1.0546316 1.0462226 -0.14178506 2169053
1.0624322 1.0661179 -0.14044559 2169054
1.0731523 1.0929686 -0.14391306 2169055
1.0816238 1.1144953 -0.14332591 2169056
1.08718 1.1291015 -0.13767232 2169057
1.0963165 1.1522419 -0.13785805 2169058
1.1044855 1.1730967 -0.1362479 2169059
1.1169171 1.2041291 -0.14140306 2169060
1.1228145 1.2196035 -0.13571149 2169061
1.1319959 1.2429258 -0.13516313 2169062
1.1421765 1.2686532 -0.1359933 2169063
1.1457678 1.2786576 -0.12624991 2169064
1.1298213 1.2419561 -0.086093366 2169065
1.0816113 1.1280286 0.0032199705 2169066
1.0683942 1.0977186 0.03768672 2169067
1.0657508 1.0926894 0.05573424 2169068
1.0680748 1.0995499 0.066213042 2169069
1.0804125 1.1304183 0.061858308 2169070
1.0897582 1.1541369 0.062192596 2169071
1.1179131 1.2230186 0.035391916 2169072
1.1710418 1.3519406 -0.026619323 2169073
1.1781799 1.370495 -0.021626232 2169074
1.1765376 1.3679551 -0.004098135 2169075
1.1616675 1.3335886 0.031811398 2169076
-1.9473133 -6.5304761 0.64425141 2169225
-1.9522234 -6.5456028 0.61634564 2169226
-1.9780074 -6.6149449 0.57879084 2169227
-2.0189261 -6.7236676 0.53346968 2169228
-2.0239613 -6.7392359 0.5042389 2169229
-2.0211618 -6.7344518 0.47867092 2169230
-2.020088 -6.7341561 0.45224088 2169231
0.80956697 0.43819204 -0.15250675 2169735
0.8171944 0.45728403 -0.15674216 2169736
0.82338804 0.4730382 -0.15747106 2169737
0.82638133 0.48130864 -0.15073016 2169738
0.82877868 0.48818415 -0.14261374 2169739
0.83674592 0.5081262 -0.14704436 2169740
0.84532499 0.52952355 -0.15263684 2169741
0.85008425 0.54196799 -0.14953825 2169742
0.85454762 0.55372471 -0.14570323 2169743
0.86079538 0.56968647 -0.14568332 2169744
0.86436576 0.57935768 -0.13973573 2169745
0.87242121 0.59959936 -0.14336291 2169746
0.8789947 0.61636591 -0.14363724 2169747
0.88588005 0.63388193 -0.14442134 2169748
0.89156884 0.64858764 -0.14254448 2169749
0.90059638 0.67119169 -0.14747781 2169750
0.906304 0.68596876 -0.14535131 2169751
0.91140592 0.69932348 -0.14187427 2169752
0.91620249 0.71196413 -0.13768585 2169753
0.92651707 0.73768336 -0.14448276 2169754
0.93163341 0.7511059 -0.14067091 2169755
0.93983322 0.77185076 -0.14284758 2169756
0.94897735 0.79485494 -0.14667536 2169757
0.95163095 0.80246532 -0.13769203 2169758
0.95737922 0.81743115 -0.134648 2169759
0.96655917 0.84056789 -0.13803254 2169760
0.97732228 0.8674925 -0.1441849 2169761
0.98403889 0.88480783 -0.14248176 2169762
0.9917044 0.90439701 -0.14239919 2169763
1.0025313 0.93153864 -0.1479661 2169764
1.0108578 0.95274121 -0.14869684 2169765
1.0166641 0.96794569 -0.14467615 2169766
1.0250103 0.9892267 -0.14510077 2169767
1.0333689 1.010555 -0.14535764 2169768
1.0411017 1.030404 -0.14432147 2169769
1.0501221 1.0533502 -0.14536572 2169770
1.0594778 1.0771179 -0.14678156 2169771
1.0649925 1.0917047 -0.14138916 2169772
1.0721147 1.1101536 -0.13863127 2169773
1.0831156 1.1379189 -0.14226151 2169774
1.0928437 1.1626546 -0.14350089 2169775
1.0996678 1.180438 -0.13970886 2169776
1.1074688 1.2005812 -0.13738155 2169777
1.1191854 1.2301531 -0.1412501 2169778
1.1256999 1.2472374 -0.13646127 2169779
1.1367953 1.2753592 -0.13885221 2169780
1.1390538 1.2822244 -0.12701796 2169781
1.1330756 1.2692426 -0.10228962 2169782
1.0825758 1.1489004 -0.0087627424 2169783
1.0615417 1.0994948 0.037961747 2169784
1.0569307 1.0896662 0.059025634 2169785
1.0598971 1.098119 0.068478659 2169786
1.0704879 1.1249975 0.066580631 2169787
1.0830916 1.1567656 0.061955702 2169788
1.1207271 1.2491126 0.020993192 2169789
1.1678382 1.3644878 -0.032686692 2169790
1.1699147 1.3709259 -0.020442229 2169791
1.1712999 1.3756891 -0.0072151395 2169792
1.1508211 1.3274473 0.036758691 2169793
-1.9423304 -6.5611477 0.6152156 2169943
-1.9696978 -6.6351614 0.57681674 2169944
-2.018429 -6.7651734 0.52764046 2169945
-2.0223596 -6.7779684 0.49875185 2169946
-2.0199153 -6.7740741 0.47285476 2169947
-2.0170801 -6.769155 0.44715557 2169948
0.80445886 0.4393585 -0.15200868 2170452
0.81088161 0.45575121 -0.1535493 2170453
0.81673968 0.47082564 -0.15362401 2170454
0.8226071 0.4859345 -0.15358965 2170455
0.8273198 0.4983272 -0.15078396 2170456
0.83290952 0.51280141 -0.14988083 2170457
0.83792031 0.52591693 -0.1475562 2170458
0.84322762 0.53974348 -0.14579657 2170459
0.8479501 0.55219424 -0.14263484 2170460
0.85592508 0.57236522 -0.14652707 2170461
0.8636241 0.59190017 -0.14961573 2170462
0.86836678 0.60443294 -0.14613004 2170463
0.87221414 0.61484617 -0.14064217 2170464
0.88174224 0.63877201 -0.14716539 2170465
0.88979769 0.65921718 -0.15033436 2170466
0.89516228 0.67327374 -0.14768359 2170467
0.90203935 0.69094372 -0.14806055 2170468
0.90650475 0.70287812 -0.1433273 2170469
0.91430783 0.72278249 -0.14531931 2170470
0.91969007 0.73692477 -0.14223491 2170471
0.92537946 0.75181019 -0.13966198 2170472
0.93352228 0.77257144 -0.14184791 2170473
0.93768859 0.78383845 -0.13600782 2170474
0.94616115 0.80541873 -0.13851342 2170475
0.95248926 0.82188171 -0.13666327 2170476
0.9628486 0.84801877 -0.14241727 2170477
0.97106105 0.86903149 -0.14382145 2170478
0.97835422 0.88785619 -0.14329825 2170479
0.98472035 0.90446979 -0.14087915 2170480
0.99609786 0.93313658 -0.14762031 2170481
1.0027988 0.9505868 -0.14547339 2170482
1.0126503 0.97562945 -0.14892629 2170483
1.0165311 0.98632193 -0.14135461 2170484
1.0292537 1.0183158 -0.14956215 2170485
1.0356721 1.0351464 -0.14625375 2170486
1.0433636 1.055059 -0.14505473 2170487
1.0510631 1.0750067 -0.143701 2170488
1.0603665 1.0988426 -0.14494991 2170489
1.0674453 1.117324 -0.14217202 2170490
1.0751696 1.1373796 -0.14034174 2170491
1.0829005 1.1574668 -0.13835521 2170492
1.0922487 1.1814835 -0.13889663 2170493
1.1016103 1.2055525 -0.13924487 2170494
1.1126029 1.2335932 -0.14204644 2170495
1.1184255 1.2491244 -0.13620435 2170496
1.1291203 1.2764845 -0.13808005 2170497
1.1336428 1.2888865 -0.12988238 2170498
1.133911 1.290964 -0.11491107 2170499
1.1191015 1.2563989 -0.076453783 2170500
1.0609239 1.1163501 0.028582754 2170501
1.0537279 1.1001542 0.05374239 2170502
1.0510844 1.0950141 0.071724959 2170503
1.0668772 1.1347594 0.061864756 2170504
1.0817161 1.1722169 0.053826511 2170505
1.112816 1.2493532 0.022190243 2170506
1.1632586 1.3737491 -0.036842607 2170507
1.1653261 1.380209 -0.024568224 2170508
1.1633757 1.3768573 -0.0065432885 2170509
1.1340219 1.3065413 0.050196987 2170510
-1.9476595 -6.5175953 0.64577252 2170659
-1.9597033 -6.5511494 0.61478454 2170660
-1.9983411 -6.6536088 0.57139713 2170661
-2.05567 -6.8045917 0.51827878 2170662
-2.0546503 -6.8044677 0.49154297 2170663
-2.0539405 -6.8051515 0.46461841 2170664
-2.0514164 -6.8011317 0.43856204 2170665
0.80824631 0.43084431 -0.14565864 2171169
0.81733459 0.45329273 -0.15330008 2171170
0.82470387 0.47175127 -0.15673117 2171171
0.82770294 0.48001608 -0.14999282 2171172
0.83245349 0.49237818 -0.14720149 2171173
0.84015077 0.51164329 -0.15094635 2171174
0.84461784 0.52336276 -0.14729564 2171175
0.85145545 0.54064375 -0.14881097 2171176
0.85503578 0.55030167 -0.14302212 2171177
0.86189055 0.5676474 -0.14431246 2171178
0.86726248 0.58152574 -0.14224391 2171179
0.87083721 0.59119093 -0.136224 2171180
0.88283485 0.62066638 -0.14803328 2171181
0.88853419 0.63535249 -0.14625105 2171182
0.89393556 0.6493476 -0.14373104 2171183
0.90177011 0.66908592 -0.14614168 2171184
0.91084027 0.69175524 -0.15089956 2171185
0.9144339 0.70152378 -0.14428183 2171186
0.91985768 0.71561736 -0.14131592 2171187
0.9271273 0.73408157 -0.14194007 2171188
0.93471736 0.75331879 -0.1430345 2171189
0.94046652 0.76821709 -0.14033085 2171190
0.94590861 0.78239906 -0.13691489 2171191
0.95414865 0.80321825 -0.1388088 2171192
0.96115804 0.82113844 -0.13814777 2171193
0.97161353 0.84724653 -0.14388709 2171194
0.97990274 0.86823773 -0.14527725 2171195
0.98569369 0.88331378 -0.14180441 2171196
0.99400556 0.90439063 -0.14289162 2171197
1.0016999 0.92401701 -0.1426525 2171198
1.0125704 0.95121628 -0.14802645 2171199
1.0206108 0.97170264 -0.14801955 2171200
1.0283442 0.99147445 -0.14728269 2171201
1.0348109 1.008243 -0.14412907 2171202
1.0422398 1.0273178 -0.14253697 2171203
1.0519193 1.0517792 -0.14470811 2171204
1.0584034 1.0686307 -0.14113127 2171205
1.0658553 1.0878069 -0.13908263 2171206
1.0771874 1.1162746 -0.14345844 2171207
1.0833658 1.1324389 -0.13889353 2171208
1.0937599 1.1587051 -0.14123423 2171209
1.1015718 1.1788094 -0.13906637 2171210
1.1165578 1.2161217 -0.14846861 2171211
1.1204787 1.2269366 -0.1395535 2171212
1.1283147 1.2471496 -0.13687746 2171213
1.1381238 1.272114 -0.1371755 2171214
1.1469598 1.294762 -0.13571627 2171215
1.1515216 1.3071557 -0.12738813 2171216
1.1448491 1.2925408 -0.10161161 2171217
1.0835346 1.1464313 0.0076443162 2171218
1.0676835 1.1095985 0.046042718 2171219
1.0670204 1.1093014 0.061087914 2171220
1.0789765 1.1394105 0.057265487 2171221
1.1129669 1.2226787 0.021234892 2171222
1.1373743 1.2829109 0.00011543778 2171223
1.1792619 1.3853998 -0.045646276 2171224
1.1800187 1.3886487 -0.0313766 2171225
1.1716739 1.3698989 -0.0042395801 2171226
-1.9695817 -6.5089197 0.64496958 2171376
-1.9864317 -6.5543799 0.6119386 2171377
-2.0222454 -6.6483946 0.5699299 2171378
-2.0819838 -6.8037252 0.5159446 2171379
-2.0748546 -6.7879944 0.49205551 2171380
-2.0676947 -6.7721744 0.46829772 2171381
-2.0687315 -6.7773485 0.44057089 2171382
0.82000506 0.43727568 -0.15487146 2171884
0.82479751 0.44957039 -0.15234144 2171885
0.83047634 0.46391687 -0.15174332 2171886
0.8367542 0.47965676 -0.15237895 2171887
0.84037268 0.48926875 -0.14691195 2171888
0.84785497 0.50781345 -0.14999191 2171889
0.85296637 0.5208925 -0.14766008 2171890
0.8592791 0.53676051 -0.14785878 2171891
0.86590254 0.55336106 -0.14859204 2171892
0.87283939 0.57070172 -0.14984962 2171893
0.87646282 0.58037299 -0.14387688 2171894
0.8843261 0.59988797 -0.14683443 2171895
0.88794762 0.60956937 -0.14069791 2171896
0.89644504 0.63058645 -0.14466874 2171897
0.90373939 0.64882517 -0.14594519 2171898
0.90859127 0.66139525 -0.14205329 2171899
0.91775328 0.68401045 -0.14682801 2171900
0.92508638 0.70238489 -0.14769071 2171901
0.9305737 0.71647066 -0.14470212 2171902
0.93637371 0.73129559 -0.14222844 2171903
0.94342303 0.74904829 -0.14209323 2171904
0.95141971 0.76902872 -0.14364718 2171905
0.95598578 0.78100556 -0.1383944 2171906
0.96557325 0.80473661 -0.1426791 2171907
0.97171915 0.82043284 -0.14019819 2171908
0.98071104 0.84280717 -0.14294875 2171909
0.98750514 0.86004949 -0.14138608 2171910
0.99525827 0.87955457 -0.14145464 2171911
1.0039777 0.90134323 -0.14312217 2171912
1.0107981 0.91869098 -0.14113647 2171913
1.0211437 0.9443357 -0.14536041 2171914
1.0283047 0.96251559 -0.14364597 2171915
1.0393313 0.98980427 -0.14862402 2171916
1.0445806 1.0035166 -0.14319436 2171917
1.0553201 1.0301707 -0.14722386 2171918
1.060575 1.0439209 -0.14153978 2171919
1.0703722 1.0683925 -0.14352715 2171920
1.0779083 1.0875489 -0.14145736 2171921
1.0864291 1.1090455 -0.14088243 2171922
1.0969228 1.1352205 -0.14340085 2171923
1.1048127 1.1552628 -0.14138235 2171924
1.1130377 1.1761131 -0.13974413 2171925
1.1242342 1.204013 -0.14273818 2171926
1.1318206 1.2233876 -0.13967985 2171927
1.1377568 1.2388666 -0.13384415 2171928
1.1503197 1.2700666 -0.1383312 2171929
1.1609138 1.2966243 -0.13944773 2171930
1.1681941 1.3153383 -0.13520266 2171931
1.1704704 1.3221813 -0.12315504 2171932
1.1600204 1.2987829 -0.091816016 2171933
1.0948831 1.1453232 0.021270599 2171934
1.080482 1.112385 0.056975938 2171935
1.0922362 1.1416613 0.053687718 2171936
1.1542389 1.2906353 -0.022621546 2171937
1.1877503 1.371874 -0.056075528 2171938
1.1898905 1.3783987 -0.043768 2171939
1.1909926 1.3824471 -0.029989762 2171940
1.1822176 1.3629179 -0.0023871548 2171941
-1.9871272 -6.5072417 0.64387047 2172091
-2.0048289 -6.5544863 0.61050105 2172092
-2.0611904 -6.6998038 0.55943012 2172093
-2.0960422 -6.7906904 0.51674587 2172094
-2.0950029 -6.7905731 0.49000219 2172095
-2.0899496 -6.7802672 0.46515849 2172096
-2.087023 -6.7753572 0.43932477 2172097
0.81721377 0.41470781 -0.14895524 2172599
0.82674944 0.43771333 -0.15739405 2172600
0.83424693 0.45608884 -0.16092357 2172601
0.8384968 0.46706 -0.15692437 2172602
0.84095621 0.47394279 -0.14884453 2172603
0.84818548 0.49174172 -0.1513744 2172604
0.85693151 0.51303059 -0.15707737 2172605
0.85968518 0.52060628 -0.14944014 2172606
0.86242604 0.52815366 -0.14176448 2172607
0.86878872 0.54401493 -0.1418743 2172608
0.8748576 0.55921423 -0.1412179 2172609
0.88215339 0.57724547 -0.14303146 2172610
0.88824177 0.59251523 -0.14213897 2172611
0.89403069 0.60710758 -0.14049578 2172612
0.90259302 0.62809861 -0.144465 2172613
0.90870923 0.64347118 -0.14321245 2172614
0.91792589 0.66600651 -0.14813259 2172615
0.92530525 0.68432254 -0.14912091 2172616
0.93051934 0.69765323 -0.14561631 2172617
0.93667018 0.71315759 -0.14387368 2172618
0.94407856 0.73158163 -0.14447667 2172619
0.95024359 0.74714381 -0.14249216 2172620
0.95767266 0.76564443 -0.14282502 2172621
0.9651134 0.7841875 -0.14301567 2172622
0.97193253 0.80130434 -0.14186139 2172623
0.97812444 0.81697917 -0.13938269 2172624
0.99132109 0.84892839 -0.14985782 2172625
0.9972201 0.8639558 -0.14648016 2172626
1.0034405 0.87974066 -0.14358053 2172627
1.0128711 0.90300429 -0.14639902 2172628
1.0174975 0.91510618 -0.14033136 2172629
1.0279213 0.94071686 -0.14455697 2172630
1.0367523 0.96263885 -0.14570871 2172631
1.044626 0.98234713 -0.14497811 2172632
1.0560826 1.0104309 -0.15031603 2172633
1.0623554 1.0264381 -0.14642812 2172634
1.0702612 1.0462713 -0.14521435 2172635
1.0765394 1.0623151 -0.14107166 2172636
1.0860977 1.0860424 -0.14232196 2172637
1.0940276 1.1059788 -0.14064308 2172638
1.1042718 1.1313497 -0.14261554 2172639
1.1122212 1.151366 -0.14059922 2172640
1.1221638 1.1760703 -0.14164588 2172641
1.130794 1.1977172 -0.14036027 2172642
1.143424 1.2287695 -0.14525281 2172643
1.1500804 1.2458203 -0.14042611 2172644
1.1570698 1.2636653 -0.1359929 2172645
1.1660682 1.2862465 -0.13453227 2172646
1.1754105 1.3096548 -0.13340521 2172647
1.1837537 1.3307302 -0.13055801 2172648
1.1857005 1.3367565 -0.11791573 2172649
1.1406971 1.2321401 -0.035330042 2172650
1.097847 1.1324766 0.042735316 2172651
1.1083548 1.1585773 0.04154104 2172652
1.1511467 1.2609068 -0.0061447201 2172653
1.1971439 1.370913 -0.05728104 2172654
1.2006665 1.380661 -0.046897896 2172655
1.1997318 1.3798734 -0.030211383 2172656
1.1854134 1.3474166 0.0050158408 2172657
-1.9906459 -6.500505 0.64444518 2172807
-2.0214777 -6.5807943 0.60544747 2172808
-2.0852313 -6.7443905 0.55101377 2172809
-2.0936816 -6.7682595 0.52018887 2172810
-2.0930111 -6.769074 0.49337 2172811
-2.095551 -6.7780194 0.46496087 2172812
-2.0929782 -6.7740273 0.43894902 2172813
0.82358521 0.42552283 -0.14579977 2173317
0.83108491 0.44384336 -0.14938316 2173318
0.83890229 0.46290493 -0.15349711 2173319
0.84315574 0.47385874 -0.14944287 2173320
0.8504045 0.49165308 -0.15196887 2173321
0.85496354 0.50332165 -0.1484025 2173322
0.86223716 0.52120036 -0.1506855 2173323
0.86740857 0.53428775 -0.14824498 2173324
0.87410063 0.55086392 -0.14897315 2173325
0.87989104 0.56538916 -0.1476312 2173326
0.88293755 0.57363737 -0.1403766 2173327
0.88842469 0.58748436 -0.13821287 2173328
0.89791185 0.61052054 -0.14425279 2173329
0.90372664 0.62514591 -0.14248376 2173330
0.91263902 0.64690042 -0.14692783 2173331
0.91940325 0.66373533 -0.14679867 2173332
0.92431104 0.67631203 -0.14279227 2173333
0.93296146 0.69751447 -0.14616013 2173334
0.93975472 0.71445698 -0.1456499 2173335
0.94436055 0.7263692 -0.14070819 2173336
0.95179486 0.74481416 -0.14118943 2173337
0.96208125 0.76985937 -0.14700025 2173338
0.96701568 0.78256369 -0.14232999 2173339
0.97226483 0.79600322 -0.13817348 2173340
0.98101282 0.81754524 -0.14049537 2173341
0.98882127 0.83693123 -0.14086384 2173342
0.99920106 0.86228901 -0.14580549 2173343
1.0057572 0.87880838 -0.1434958 2173344
1.0123179 0.89535034 -0.14106244 2173345
1.0214623 0.91790032 -0.14314482 2173346
1.0293311 0.93750775 -0.14274094 2173347
1.0407748 0.96543729 -0.14848486 2173348
1.0483477 0.9843936 -0.14716636 2173349
1.0559287 1.0033834 -0.1457016 2173350
1.0638436 1.0231653 -0.14465202 2173351
1.0727491 1.0452704 -0.14512353 2173352
1.0800275 1.0636015 -0.14264449 2173353
1.0879685 1.0834916 -0.14112738 2173354
1.0995431 1.1118757 -0.1454775 2173355
1.1098204 1.1372566 -0.14741616 2173356
1.119453 1.1611532 -0.14806721 2173357
1.1208013 1.1657054 -0.13511242 2173358
1.1327716 1.195098 -0.13919839 2173359
1.1400975 1.2136481 -0.13563098 2173360
1.1527727 1.2447373 -0.140328 2173361
1.1594452 1.2617906 -0.13537253 2173362
1.1694726 1.2867206 -0.13546868 2173363
1.1808584 1.3148572 -0.13741884 2173364
1.1899028 1.3375231 -0.13556185 2173365
1.1955771 1.3522933 -0.12845597 2173366
1.1931214 1.3479701 -0.10917192 2173367
1.1099027 1.1537727 0.028850771 2173368
1.1095814 1.1543397 0.043616977 2173369
1.1432852 1.2349776 0.0091943275 2173370
1.2023454 1.3754059 -0.060593508 2173371
1.2045143 1.3819426 -0.048247255 2173372
1.2049494 1.3843919 -0.033470128 2173373
1.189226 1.3487258 0.0036879734 2173374
-2.0012641 -6.5121961 0.64191061 2173524
-2.0179584 -6.5566444 0.60896528 2173525
-2.0887938 -6.7376208 0.55156416 2173526
-2.0954497 -6.7569008 0.52158755 2173527
-2.0987756 -6.7677994 0.49294341 2173528
-2.0987825 -6.7703328 0.46574867 2173529
-2.098742 -6.7727513 0.43851382 2173530
0.83529478 0.448531 -0.15470944 2174033
0.83776593 0.45539942 -0.14670929 2174034
0.84801036 0.4799403 -0.1560526 2174035
0.85228187 0.49091801 -0.15189496 2174036
0.85715371 0.50326848 -0.14898996 2174037
0.86202669 0.51562965 -0.14600082 2174038
0.86750746 0.52938461 -0.14423797 2174039
0.87451476 0.54663271 -0.14563708 2174040
0.88061994 0.56183565 -0.14495945 2174041
0.88795829 0.57986832 -0.14675178 2174042
0.89285398 0.59233141 -0.14327024 2174043
0.8977496 0.60480213 -0.13970347 2174044
0.90789962 0.62931216 -0.14685041 2174045
0.91622049 0.64965516 -0.1500061 2174046
0.9198966 0.65936679 -0.14357461 2174047
0.92730677 0.6776498 -0.14458519 2174048
0.93504304 0.69669712 -0.14607693 2174049
0.94122571 0.71219134 -0.14432941 2174050
0.94647032 0.72554046 -0.14062369 2174051
0.95550019 0.74760652 -0.14416096 2174052
0.96138781 0.76245874 -0.14144255 2174053
0.97013313 0.78390461 -0.14405622 2174054
0.97571599 0.79807967 -0.14048971 2174055
0.98129952 0.81226563 -0.13682196 2174056
0.99104106 0.8360582 -0.14077435 2174057
1.0014465 0.86140573 -0.14571483 2174058
1.0083404 0.87866139 -0.14399123 2174059
1.0149182 0.89519954 -0.14155379 2174060
1.0260252 0.92222983 -0.14711066 2174061
1.0335953 0.94109595 -0.14610481 2174062
1.0405241 0.9584915 -0.14380758 2174063
1.0513661 0.98497134 -0.14820854 2174064
1.0589674 1.0039582 -0.1467358 2174065
1.0688672 1.028295 -0.14904997 2174066
1.0758326 1.0458378 -0.14614122 2174067
1.0844462 1.0672233 -0.14587325 2174068
1.0930707 1.0886523 -0.14543571 2174069
1.1003845 1.1070484 -0.14263821 2174070
1.1093583 1.1293232 -0.14241885 2174071
1.1206678 1.1570567 -0.14580254 2174072
1.1276733 1.1747831 -0.14198214 2174073
1.1356809 1.1948593 -0.13962543 2174074
1.1477053 1.224324 -0.14346083 2174075
1.1550628 1.2429186 -0.13969457 2174076
1.1641012 1.2654533 -0.1383937 2174077
1.1711298 1.2833083 -0.13380501 2174078
1.1838903 1.3145815 -0.13782193 2174079
1.1912683 1.333287 -0.13340789 2174080
1.2006786 1.3567641 -0.13189024 2174081
1.2029721 1.3635867 -0.11962131 2174082
1.1120824 1.1519806 0.02945316 2174083
1.1042641 1.1349664 0.055114251 2174084
1.1424735 1.2259383 0.014217376 2174085
1.2068037 1.3783352 -0.062918857 2174086
1.2096668 1.38649 -0.051521391 2174087
1.2097642 1.3881457 -0.036237273 2174088
1.2015752 1.3703079 -0.0095373383 2174089
-2.0174203 -6.5109897 0.64064693 2174239
-2.0441301 -6.5801473 0.60343635 2174240
-2.1004143 -6.7233381 0.55249482 2174241
-2.1071196 -6.7426047 0.52255535 2174242
-2.1053545 -6.7406883 0.49632815 2174243
-2.1079273 -6.7496381 0.46801266 2174244
-2.1060696 -6.7474976 0.44173911 2174245
0.83662504 0.43690726 -0.15978083 2174751
0.84122014 0.44851187 -0.15654749 2174752
0.84431237 0.45673659 -0.14988004 2174753
0.85010833 0.47106123 -0.14918159 2174754
0.85621434 0.48609683 -0.14904524 2174755
0.86657912 0.51076359 -0.15806255 2174756
0.86967206 0.5190196 -0.15107606 2174757
0.87305951 0.52794379 -0.14469944 2174758
0.8813414 0.54794991 -0.14870089 2174759
0.88749313 0.56314969 -0.14800541 2174760
0.89241928 0.57558304 -0.14461759 2174761
0.89827353 0.59012967 -0.1430705 2174762
0.90506423 0.60681272 -0.14333363 2174763
0.91373301 0.62777567 -0.14728224 2174764
0.91867793 0.64029348 -0.14348282 2174765
0.92675292 0.65993881 -0.14588197 2174766
0.9364152 0.6832146 -0.15125211 2174767
0.94012058 0.69294429 -0.14462367 2174768
0.9453963 0.70625705 -0.14102724 2174769
0.95225573 0.72319061 -0.14041099 2174770
0.96039444 0.74305731 -0.14211223 2174771
0.96854889 0.76297718 -0.14365758 2174772
0.97607994 0.78148937 -0.14383779 2174773
0.98298186 0.79857832 -0.14267348 2174774
0.99149722 0.8193723 -0.14436699 2174775
0.99938446 0.83874613 -0.14470813 2174776
1.0076069 0.858904 -0.14548884 2174777
1.0148716 0.87688285 -0.14435047 2174778
1.020846 0.89191592 -0.14074112 2174779
1.0313771 0.91741925 -0.14513937 2174780
1.0396488 0.93775606 -0.14529476 2174781
1.0482594 0.95888859 -0.14586277 2174782
1.0585228 0.98383999 -0.14910868 2174783
1.0625619 0.99448973 -0.14140637 2174784
1.0748285 1.0240893 -0.14768381 2174785
1.0811793 1.0400864 -0.14366418 2174786
1.0895172 1.0606754 -0.14285381 2174787
1.1001883 1.086663 -0.14573848 2174788
1.1068872 1.1035055 -0.14184099 2174789
1.1159217 1.1257534 -0.14162299 2174790
1.1236308 1.1449568 -0.13906693 2174791
1.1367052 1.1765807 -0.14494394 2174792
1.1434288 1.1935406 -0.1404324 2174793
1.1525079 1.2159649 -0.13949646 2174794
1.1602479 1.2353055 -0.13627966 2174795
1.1717095 1.2632859 -0.13865013 2174796
1.1828518 1.2905498 -0.14027025 2174797
1.191635 1.3123635 -0.1380658 2174798
1.200425 1.3342099 -0.13568798 2174799
1.2075167 1.3521281 -0.13060278 2174800
1.2098243 1.3589402 -0.11834082 2174801
1.1231068 1.1587263 0.023716848 2174802
1.1131858 1.1369698 0.052393202 2174803
1.140661 1.202243 0.027256912 2174804
1.2178099 1.3832886 -0.067520417 2174805
1.2179388 1.3850219 -0.052212931 2174806
1.2163097 1.3826501 -0.03452066 2174807
1.2156837 1.3826096 -0.018311867 2174808
-2.0378401 -6.5144134 0.63853019 2174958
-2.060317 -6.5724921 0.60315174 2174959
-2.1055913 -6.6871352 0.55720598 2174960
-2.1049855 -6.6881084 0.53071696 2174961
-2.1061759 -6.6935425 0.50335371 2174962
-2.1058438 -6.6952062 0.47662109 2174963
-2.1032596 -6.6912813 0.45092842 2174964
0.84113139 0.43185112 -0.15686588 2175471
0.84515429 0.44208306 -0.15229528 2175472
0.85068738 0.45569274 -0.15101746 2175473
0.85440302 0.46525055 -0.14563429 2175474
0.86299026 0.48570818 -0.1508318 2175475
0.87129694 0.50555784 -0.15520565 2175476
0.87440985 0.51379341 -0.14823142 2175477
0.87966675 0.52683645 -0.14579779 2175478
0.88554412 0.54128027 -0.14457662 2175479
0.8929767 0.55922598 -0.14649332 2175480
0.89980352 0.57582676 -0.14698206 2175481
0.90695369 0.59316814 -0.14798732 2175482
0.91474241 0.61196059 -0.15013747 2175483
0.91878456 0.62233621 -0.14452095 2175484
0.92785317 0.64403892 -0.1489463 2175485
0.93221319 0.65514863 -0.14377308 2175486
0.93846691 0.67053556 -0.14227718 2175487
0.94916934 0.69597536 -0.14936918 2175488
0.9535383 0.70713532 -0.14388962 2175489
0.96141285 0.72622401 -0.14509888 2175490
0.96706122 0.74029434 -0.14188088 2175491
0.97335297 0.75583011 -0.13977769 2175492
0.98093694 0.77430379 -0.13997717 2175493
0.98820978 0.79208755 -0.13943304 2175494
0.99549198 0.80990678 -0.13875265 2175495
1.0057039 0.83438778 -0.1432806 2175496
1.013988 0.85451442 -0.1440663 2175497
1.0235907 0.87765354 -0.1470409 2175498
1.0305967 0.89491045 -0.14516237 2175499
1.0382649 0.91368634 -0.14431258 2175500
1.0472571 0.93549114 -0.14562191 2175501
1.056924 0.95885116 -0.14790216 2175502
1.068922 0.9875443 -0.15397634 2175503
1.074656 1.0019795 -0.14906801 2175504
1.0823801 1.020965 -0.14742689 2175505
1.0901115 1.0399821 -0.1456386 2175506
1.0981834 1.0597918 -0.14425741 2175507
1.1076014 1.0826942 -0.14492504 2175508
1.113681 1.0979795 -0.13993502 2175509
1.1241269 1.1232685 -0.14190058 2175510
1.1332437 1.1455352 -0.14149891 2175511
1.1450726 1.1740345 -0.14520949 2175512
1.1521875 1.1917512 -0.14122541 2175513
1.1599818 1.2110397 -0.1381643 2175514
1.1677802 1.2303513 -0.13495316 2175515
1.1827351 1.2661144 -0.14254358 2175516
1.1915799 1.2878692 -0.14050698 2175517
1.2011161 1.3112305 -0.13932501 2175518
1.2103189 1.3338442 -0.1374442 2175519
1.2178119 1.3525394 -0.13284901 2175520
1.1926005 1.2959232 -0.080344692 2175521
1.1372426 1.1697633 0.015001731 2175522
1.1262206 1.1456845 0.045229845 2175523
1.1608456 1.2268826 0.010327711 2175524
1.2240382 1.374107 -0.063818216 2175525
1.2265977 1.3814481 -0.05192424 2175526
1.2294853 1.3895484 -0.040472556 2175527
1.2288635 1.3895363 -0.024214186 2175528
1.2058264 1.3376622 0.022242188 2175529
-2.0504503 -6.5103078 0.63810694 2175678
-2.092387 -6.6159105 0.59454846 2175679
-2.1067069 -6.6536112 0.56193131 2175680
-2.1079652 -6.6591744 0.534747 2175681
-2.10658 -6.6582303 0.50868589 2175682
-2.10478 -6.6562667 0.48279256 2175683
-2.107372 -6.6651387 0.45475799 2175684
0.84480512 0.42871135 -0.15536 2176187
0.8537066 0.44969487 -0.16158819 2176188
0.85867643 0.46197873 -0.15892167 2176189
0.86181432 0.47020414 -0.15216312 2176190
0.86862117 0.48658189 -0.15333772 2176191
0.8720575 0.49548087 -0.1471121 2176192
0.87949699 0.51328874 -0.14939304 2176193
0.88509572 0.52701426 -0.14760695 2176194
0.89007795 0.53937626 -0.14441997 2176195
0.89693004 0.55591512 -0.14503887 2176196
0.90410662 0.5731917 -0.14617814 2176197
0.90690804 0.58071488 -0.13820142 2176198
0.91504145 0.60015184 -0.1410391 2176199
0.92224753 0.61753303 -0.1418193 2176200
0.93231344 0.64132726 -0.14815186 2176201
0.94177419 0.66378975 -0.15303393 2176202
0.94585013 0.67420983 -0.14711177 2176203
0.95023841 0.68533504 -0.14174551 2176204
0.95974267 0.70794302 -0.14619543 2176205
0.96702397 0.72558188 -0.14616032 2176206
0.97174096 0.73747474 -0.14110117 2176207
0.98065031 0.758798 -0.14386229 2176208
0.98893148 0.77872741 -0.14524494 2176209
0.99463105 0.79286331 -0.14166452 2176210
1.0029351 0.81287456 -0.14276099 2176211
1.0119063 0.83440632 -0.1448876 2176212
1.0199134 0.85378307 -0.14507151 2176213
1.0259639 0.86876041 -0.14158349 2176214
1.0376077 0.89637756 -0.14790063 2176215
1.0476326 0.92036331 -0.15108946 2176216
1.0537109 0.93544787 -0.14716996 2176217
1.0647616 0.96179146 -0.15172833 2176218
1.0728467 0.98144597 -0.15094829 2176219
1.0789424 0.99661052 -0.14662242 2176220
1.0877095 1.0178393 -0.1466798 2176221
1.0968235 1.0398725 -0.14712657 2176222
1.1056154 1.0611932 -0.14684244 2176223
1.1137459 1.0810295 -0.14528689 2176224
1.1242445 1.1062615 -0.14740664 2176225
1.1327337 1.1269475 -0.14605804 2176226
1.1405541 1.1461287 -0.14346611 2176227
1.1480399 1.1645629 -0.14018872 2176228
1.1602933 1.1938676 -0.14422539 2176229
1.1695012 1.2162592 -0.14325653 2176230
1.1763264 1.2332364 -0.13843177 2176231
1.1865764 1.2580382 -0.13869348 2176232
1.1940935 1.2766227 -0.13461071 2176233
1.2050525 1.3030812 -0.13552451 2176234
1.2174062 1.3327492 -0.13826089 2176235
1.2228706 1.3466913 -0.13061813 2176236
1.1940496 1.2822069 -0.073105022 2176237
1.1446095 1.1704459 0.013198759 2176238
1.1328319 1.14481 0.044430569 2176239
1.1471045 1.1788331 0.03853317 2176240
1.2182988 1.3433968 -0.046547033 2176241
1.2362366 1.3859617 -0.056072053 2176242
1.237395 1.3900523 -0.042186003 2176243
1.2353681 1.3868248 -0.024007911 2176244
1.2290825 1.3738014 -0.00022494019 2176245
-2.0572708 -6.535285 0.63422489 2176394
-2.0857763 -6.6079512 0.5962134 2176395
-2.0893264 -6.6191435 0.568322 2176396
-2.0954151 -6.6366124 0.53915066 2176397
-2.0910821 -6.6283765 0.51456165 2176398
-2.0900381 -6.6282582 0.48846576 2176399
-2.0941174 -6.6408014 0.45985407 2176400
0.84321964 0.42778158 -0.15404095 2176904
0.84816575 0.44001436 -0.15150629 2176905
0.85615593 0.45901799 -0.15560198 2176906
0.86264199 0.4746958 -0.15620895 2176907
0.8645463 0.48019254 -0.14672655 2176908
0.87165469 0.49727449 -0.14847283 2176909
0.88001102 0.51715213 -0.15272245 2176910
0.88560736 0.53089434 -0.15092036 2176911
0.89120817 0.54465657 -0.14902061 2176912
0.89619112 0.5570491 -0.14572597 2176913
0.90148652 0.57014757 -0.14299169 2176914
0.90960163 0.58956033 -0.1459416 2176915
0.91585171 0.60481727 -0.14490904 2176916
0.92557377 0.62786061 -0.15074983 2176917
0.93121666 0.64178574 -0.14819209 2176918
0.9349612 0.65146387 -0.14176524 2176919
0.94537103 0.67610198 -0.14840245 2176920
0.94975549 0.68723482 -0.14302953 2176921
0.95541322 0.70123452 -0.14005619 2176922
0.96491963 0.72389704 -0.14435822 2176923
0.97316384 0.74374098 -0.14603266 2176924
0.97852248 0.75710547 -0.14208145 2176925
0.98388064 0.77047747 -0.13803639 2176926
0.99572098 0.79847097 -0.14591303 2176927
1.0007697 0.81117189 -0.14101245 2176928
1.0084229 0.8297587 -0.14077483 2176929
1.0216417 0.86093187 -0.15042809 2176930
1.0270369 0.87445349 -0.14573509 2176931
1.0340723 0.89169312 -0.14386298 2176932
1.0444074 0.91641289 -0.14765689 2176933
1.0541046 0.93971086 -0.15009618 2176934
1.0621655 0.95932162 -0.14948405 2176935
1.069241 0.97671407 -0.14701195 2176936
1.0786501 0.99941325 -0.1483653 2176937
1.0854068 1.0161113 -0.14504158 2176938
1.0928347 1.0343457 -0.14270885 2176939
1.0999328 1.0518444 -0.13968129 2176940
1.1114016 1.0792949 -0.14368245 2176941
1.1252513 1.1121881 -0.15128623 2176942
1.1313721 1.1275153 -0.14610712 2176943
1.1388438 1.1459298 -0.14297549 2176944
1.1466581 1.165139 -0.14023848 2176945
1.1582155 1.1928999 -0.14321049 2176946
1.1677505 1.2160698 -0.14277835 2176947
1.1772968 1.2392845 -0.14215907 2176948
1.1865121 1.261762 -0.14083087 2176949
1.1953937 1.2834944 -0.13880454 2176950
1.2049696 1.306832 -0.13763274 2176951
1.2152439 1.3317869 -0.13729312 2176952
1.2200096 1.3441474 -0.12864518 2176953
1.2164652 1.3374739 -0.10784684 2176954
1.1408064 1.1654594 0.016642135 2176955
1.124526 1.1294497 0.054285504 2176956
1.1338954 1.1522616 0.055191375 2176957
1.174646 1.2471551 0.012400229 2176958
1.2340395 1.3849808 -0.055158202 2176959
1.2362449 1.3914814 -0.042719677 2176960
1.2359742 1.3922869 -0.026918368 2176961
1.2184602 1.3534025 0.0120017 2176962
-2.6855137 -8.0580397 0.77212709 2177099
-2.0526397 -6.5329099 0.63509285 2177111
-2.0799937 -6.60285 0.59757304 2177112
-2.0831711 -6.6131344 0.56987363 2177113
-2.0800064 -6.607758 0.54488021 2177114
-2.0816052 -6.6141577 0.51771247 2177115
-2.0824151 -6.6186152 0.49081787 2177116
-2.0890737 -6.6375546 0.46100813 2177117
0.84401464 0.43221337 -0.15815523 2177625
0.84865695 0.44379252 -0.15492737 2177626
0.85451436 0.45808262 -0.15430799 2177627
0.8600747 0.47172233 -0.15291762 2177628
0.86686373 0.48811042 -0.15409 2177629
0.87182552 0.50043726 -0.15116978 2177630
0.87678838 0.51277459 -0.14816537 2177631
0.88267845 0.52719074 -0.14704199 2177632
0.8876459 0.53955579 -0.14385886 2177633
0.8938567 0.55470973 -0.14318524 2177634
0.90069902 0.571289 -0.14369044 2177635
0.90692765 0.58650756 -0.14278716 2177636
0.91379112 0.6031608 -0.14304881 2177637
0.92223835 0.62338001 -0.14636035 2177638
0.92849731 0.63870621 -0.14509015 2177639
0.93539602 0.65548092 -0.14496408 2177640
0.9432568 0.67443162 -0.14658597 2177641
0.9492234 0.68913859 -0.14433117 2177642
0.95647091 0.70673889 -0.14444223 2177643
0.96532989 0.727983 -0.14749201 2177644
0.97292477 0.74639732 -0.1479276 2177645
0.98053169 0.76485425 -0.14822087 2177646
0.98750508 0.78189671 -0.14716335 2177647
0.99319166 0.79604673 -0.14357333 2177648
1.0021245 0.81754148 -0.14585529 2177649
1.0084718 0.83320916 -0.14321522 2177650
1.0177596 0.85554051 -0.14577191 2177651
1.027066 0.87793416 -0.14814912 2177652
1.0331106 0.89295828 -0.14451392 2177653
1.0404718 0.91097701 -0.14308783 2177654
1.0524565 0.93949682 -0.14958969 2177655
1.0601746 0.95836002 -0.14840961 2177656
1.0675694 0.97650421 -0.14651418 2177657
1.0776286 1.0007166 -0.14900297 2177658
1.0860417 1.0212075 -0.14848557 2177659
1.0927961 1.037941 -0.14501542 2177660
1.1025645 1.061548 -0.14641087 2177661
1.1103362 1.080627 -0.14430907 2177662
1.1174418 1.0982022 -0.14096487 2177663
1.1265723 1.1204083 -0.14074852 2177664
1.1374036 1.1465139 -0.14305417 2177665
1.1472384 1.1703666 -0.14353584 2177666
1.1536933 1.1865177 -0.1384977 2177667
1.1632075 1.2096732 -0.13809972 2177668
1.1758014 1.2398914 -0.14224181 2177669
1.1809039 1.252992 -0.1346565 2177670
1.191818 1.2794079 -0.13578245 2177671
1.2003465 1.3003801 -0.13309203 2177672
1.2064734 1.3158629 -0.1266634 2177673
1.208805 1.3226496 -0.11454883 2177674
1.1869457 1.2739161 -0.067207918 2177675
1.1397085 1.1668431 0.016063802 2177676
1.118945 1.1204706 0.060150716 2177677
1.1728055 1.2469634 0.012804986 2177679
1.2209531 1.3591355 -0.039280768 2177680
1.2252295 1.3703997 -0.029848602 2177681
1.2224902 1.365505 -0.010817371 2177682
1.2028741 1.3216929 0.030807922 2177683
-2.698312 -8.0107479 0.77502036 2177820
-2.6967423 -8.0099564 0.74282676 2177821
-2.0758255 -6.5286608 0.63351941 2177832
-2.097084 -6.5829501 0.59864098 2177833
-2.0950625 -6.5804434 0.57325357 2177834
-2.0971074 -6.5878725 0.54605126 2177835
-2.1065638 -6.6134257 0.51536143 2177836
-2.1155779 -6.6379242 0.48459002 2177837
-2.1204281 -6.6522622 0.4555383 2177838
0.85883981 0.44676346 -0.16071358 2178345
0.86200339 0.45498142 -0.15402162 2178346
0.86854225 0.47063082 -0.15463325 2178347
0.87323999 0.48223782 -0.15113997 2178348
0.88010579 0.49863109 -0.1522 2178349
0.88605225 0.5130102 -0.15116182 2178350
0.88919932 0.52122039 -0.14412507 2178351
0.8995297 0.54530185 -0.15203142 2178352
0.90612864 0.56115878 -0.1519607 2178353
0.90927535 0.56939089 -0.14467673 2178354
0.91398913 0.58109456 -0.14055595 2178355
0.92408454 0.60472757 -0.14720842 2178356
0.93166918 0.62281787 -0.14858833 2178357
0.93703824 0.63600838 -0.14540769 2178358
0.94368666 0.65204793 -0.14464723 2178359
0.95354831 0.67523837 -0.15001503 2178360
0.96022248 0.69136518 -0.14898048 2178361
0.9630363 0.69891685 -0.14040954 2178362
0.9716543 0.71938986 -0.14286202 2178363
0.97899377 0.73703319 -0.14270768 2178364
0.98731917 0.75688845 -0.14424129 2178365
0.999246 0.78479379 -0.15226436 2178366
1.0046703 0.79821336 -0.14804026 2178367
1.0107489 0.81310284 -0.14491613 2178368
1.0165008 0.82727283 -0.14108968 2178369
1.0275254 0.85324317 -0.14660425 2178370
1.0352738 0.87190688 -0.14603774 2178371
1.0430322 0.89060789 -0.14532639 2178372
1.0514644 0.91083372 -0.14562942 2178373
1.0609082 0.93334395 -0.14750072 2178374
1.0720387 0.95965737 -0.15205297 2178375
1.0775046 0.97328037 -0.14671649 2178376
1.0853158 0.9921788 -0.14524086 2178377
1.0941436 1.013377 -0.14530337 2178378
1.1036581 1.0361367 -0.14631353 2178379
1.111498 1.0551478 -0.14436764 2178380
1.1206994 1.0772392 -0.14447728 2178381
1.1302533 1.1001427 -0.14495675 2178382
1.1353961 1.1131221 -0.13818567 2178383
1.1487198 1.1445607 -0.14428082 2178384
1.1566026 1.1637493 -0.14153056 2178385
1.1675746 1.1899285 -0.14342353 2178386
1.1768475 1.2122909 -0.14245623 2178387
1.1854419 1.2331374 -0.14025909 2178388
1.1878326 1.2399668 -0.12851188 2178389
1.1902025 1.2467489 -0.1167332 2178390
1.1873541 1.2417133 -0.097214788 2178391
1.1868932 1.2420745 -0.081348665 2178392
1.188488 1.2470893 -0.06855087 2178393
1.1820388 1.2338541 -0.044176619 2178394
1.1444354 1.1498815 0.024439981 2178395
1.1283569 1.1146938 0.061526954 2178396
1.1598989 1.1890075 0.045874555 2178398
1.1957971 1.2720029 0.010964544 2178399
1.2025158 1.2886667 0.016645746 2178400
1.2056955 1.2972821 0.027215527 2178401
-2.7288253 -7.9634204 0.77694356 2178539
-2.7272422 -7.9626513 0.74488962 2178540
-2.7248356 -7.959919 0.71305287 2178541
-2.1041715 -6.5028453 0.63449997 2178551
-2.1166387 -6.5351324 0.60344559 2178552
-2.1229556 -6.5526996 0.57466042 2178553
-2.1375556 -6.5901637 0.54204267 2178554
-2.1463921 -6.6138268 0.51161146 2178555
-2.1631067 -6.6564393 0.47727439 2178556
-2.1699057 -6.6752653 0.44717127 2178557
0.86232686 0.42290923 -0.15608715 2179057
0.86335993 0.42639378 -0.1447697 2179058
0.87340051 0.44932905 -0.15291479 2179059
0.88160104 0.46831104 -0.15686569 2179060
0.88543439 0.47786427 -0.15136337 2179061
0.89146268 0.49217305 -0.15043251 2179062
0.89844495 0.50855941 -0.15137221 2179063
0.90354091 0.52087045 -0.14825955 2179064
0.91054302 0.53732479 -0.14897132 2179065
0.91883194 0.55658668 -0.15215139 2179066
0.92330623 0.56757879 -0.14744185 2179067
0.92777669 0.57856828 -0.14266074 2179068
0.94156748 0.60984182 -0.15631475 2179069
0.9470253 0.623007 -0.15319668 2179070
0.95216107 0.63547939 -0.14935505 2179071
0.96248674 0.65927452 -0.15547611 2179072
0.97056425 0.67818809 -0.15702991 2179073
0.97310978 0.68504095 -0.14787503 2179074
0.97792953 0.6968621 -0.14301313 2179075
0.98537147 0.7144224 -0.14298676 2179076
0.9961158 0.73922133 -0.14893489 2179077
1.000288 0.74965757 -0.14252901 2179078
1.0064381 0.76443106 -0.13968085 2179079
1.0155779 0.78576827 -0.14212953 2179080
1.0244039 0.806436 -0.14381015 2179081
1.0312443 0.82276386 -0.14176506 2179082
1.0424396 0.8486681 -0.14726736 2179083
1.0499731 0.86654973 -0.14610343 2179084
1.059533 0.88890111 -0.14829956 2179085
1.0654018 0.90315074 -0.14394163 2179086
1.0736363 0.92261821 -0.143512 2179087
1.0862876 0.95183229 -0.15036929 2179088
1.0952339 0.97290641 -0.15072453 2179089
1.1018089 0.98876768 -0.14695585 2179090
1.1117997 1.0121791 -0.14868429 2179091
1.1200967 1.0318701 -0.14743285 2179092
1.1290884 1.053112 -0.14713497 2179093
1.1360282 1.069834 -0.14336362 2179094
1.1440037 1.0888598 -0.14110708 2179095
1.1571691 1.1193894 -0.14685258 2179096
1.165861 1.1400379 -0.1453232 2179097
1.1731727 1.1576434 -0.14148612 2179098
1.1836176 1.1822106 -0.14230527 2179099
1.1937293 1.2060589 -0.14239444 2179100
1.1965142 1.213659 -0.13126557 2179101
1.1957769 1.2134352 -0.11488591 2179102
1.1841221 1.1889343 -0.082499795 2179103
1.1783668 1.1775196 -0.059115387 2179104
1.1774923 1.1769459 -0.043013226 2179105
1.1797633 1.1833689 -0.031504933 2179106
1.1795355 1.1842246 -0.016449729 2179107
1.1633128 1.1494173 0.021024143 2179108
1.1501937 1.1214867 0.05367906 2179109
1.1868761 1.2073562 0.046377368 2179112
-2.7491992 -7.9067674 0.74793655 2179253
-2.7557325 -7.925097 0.71375501 2179254
-2.7532461 -7.9222589 0.68202168 2179255
-2.1297214 -6.4790301 0.635171 2179264
-2.1469889 -6.522161 0.60227001 2179265
-2.1695602 -6.5778532 0.56668013 2179266
-2.1785755 -6.6015868 0.53636736 2179267
-2.1982753 -6.6505885 0.50104046 2179268
-2.2044539 -6.6676784 0.47135356 2179269
-2.2017548 -6.6637936 0.44560897 2179270
0.87280571 0.418432 -0.15567446 2179775
0.87888783 0.43260136 -0.15514305 2179776
0.883084 0.44277406 -0.15048337 2179777
0.89297765 0.46506825 -0.15777823 2179778
0.89909041 0.479339 -0.15691836 2179779
0.90297884 0.48888341 -0.15132676 2179780
0.91069859 0.50659782 -0.15357193 2179781
0.91458493 0.51615173 -0.14782488 2179782
0.92071724 0.53050369 -0.14657897 2179783
0.92588735 0.54281121 -0.14328438 2179784
0.93397343 0.56135947 -0.14570746 2179785
0.93882811 0.57301259 -0.14157186 2179786
0.94791782 0.59373766 -0.14565185 2179787
0.95768464 0.61593276 -0.15083496 2179788
0.96288794 0.6283673 -0.14700069 2179789
0.96907687 0.64292371 -0.14496405 2179790
0.97527063 0.65750122 -0.14282112 2179791
0.98477685 0.67920429 -0.14678226 2179792
