# .PCD v0.7 - Point Cloud Data file format
VERSION 0.7
FIELDS x y z
SIZE 4 4 4
TYPE F F F
COUNT 1 1 1
WIDTH 1485
HEIGHT 1
VIEWPOINT 0 0 0 1 0 0 0
POINTS 1485
DATA ascii
-1.9731019 0.96179652 0.94584185
-1.9140544 0.97604752 0.93472344
-1.8987217 0.95687312 0.93966222
-1.8036264 0.985057 0.92925614
-1.770309 0.96435928 0.93614244
-1.619164 0.97446609 0.93423879
-1.5785002 0.95761824 0.94109488
-1.5217917 0.98235714 0.92826045
-1.4722037 0.97327119 0.93428141
-1.4237084 0.95723283 0.9416545
-1.3385427 0.96396208 0.94706267
0.081810676 0.99042702 0.92080235
2.1679699 0.97478014 0.93495208
2.2614503 0.99938899 0.90820819
-2.0307636 1.0150113 0.91159266
-1.9791903 1.0337536 0.9148609
-1.9247957 1.0368388 0.90867311
-1.8722723 1.0329521 0.91404545
-1.7025586 1.0380578 0.91436994
-1.673824 1.0194651 0.92056859
-1.5658486 1.0253437 0.91571265
-1.3769293 1.0284704 0.91815484
-1.3223095 1.0159013 0.93734479
-1.2788506 1.0348692 0.94869292
0.065262809 1.014871 0.93508995
2.1406331 1.0058336 0.94538403
2.2018547 1.0223206 0.92329204
2.277014 1.0080707 0.93348432
-2.0128851 1.05229 0.91197217
-1.9334496 1.0547682 0.90446341
-1.7573451 1.084731 0.900388
-1.7370509 1.0645509 0.90613586
-1.427937 1.0742813 0.90420771
-1.3214139 1.0763493 0.93692696
0.057012517 1.0791401 0.9272306
2.2011018 1.0795925 0.92699158
-1.3597454 1.1379641 0.92129451
-1.3278894 1.1218965 0.93642068
0.051704336 1.1037931 0.90641057
2.1313941 1.144284 0.9489311
2.2284737 1.1338124 0.92918301
2.2633893 1.1229104 0.94282919
-1.3655859 1.189836 0.91328907
-1.3356324 1.1784145 0.93287224
-1.2745636 1.1996876 0.91454142
-1.1355443 1.1997918 0.9235177
3.4868784 1.188493 0.93950701
3.6824474 1.1982611 0.92428583
3.7157845 1.1999369 0.90222865
-1.3588625 1.2037324 0.910864
-1.3179702 1.204913 0.92674571
-1.2760501 1.2051231 0.92102402
-1.2294904 1.2099108 0.92266333
-1.1729 1.2080525 0.92491716
-1.1211114 1.2095851 0.92979693
-1.0718788 1.2171392 0.92989343
-1.0318356 1.218348 0.92457265
-0.97579116 1.2244912 0.922297
-0.93032998 1.2282511 0.92319536
-0.86696875 1.237 0.92459363
-0.82617497 1.2389646 0.92628318
-0.76993978 1.2408794 0.92795944
-0.72743851 1.2409841 0.92368853
-0.68050712 1.2443811 0.92418128
-0.61961579 1.2421154 0.92408955
-0.57621902 1.2445679 0.92296273
-0.52335507 1.2465346 0.92881042
-0.48653415 1.2476294 0.92500234
-0.31992587 1.2440176 0.93281478
0.027140344 1.2286767 0.90766728
0.13625781 1.2423955 0.92171693
1.1383938 1.2280208 0.92136222
1.1731573 1.223116 0.92695242
1.5471345 1.2445999 0.92191029
1.5541997 1.243216 0.92955393
2.2724364 1.202747 0.94286841
3.4403384 1.236037 0.91742229
3.4780507 1.2256994 0.92733461
3.7260973 1.2060667 0.93308169
3.7763705 1.2171812 0.92337245
3.8296075 1.2317188 0.93147647
3.8747926 1.2320684 0.92579967
3.9292295 1.2305411 0.92226177
3.9742832 1.2362955 0.92179185
4.0183163 1.2352901 0.92912698
-0.77721262 1.2523073 0.92566925
-0.66828877 1.2529676 0.90056443
-0.61322713 1.250953 0.91538298
-0.56849438 1.2513967 0.92695326
-0.52457613 1.2535869 0.91929501
-0.46474183 1.2528405 0.92699647
-0.42270988 1.2586018 0.92638916
-0.37390432 1.2600172 0.92758864
-0.34011555 1.2557337 0.91958392
0.025418475 1.2639146 0.90466857
0.13916427 1.2734404 0.91420525
0.17478503 1.2897542 0.92578661
0.22988877 1.2945107 0.92524278
0.26874864 1.2973726 0.92721868
0.31774339 1.2964416 0.91266441
1.1427766 1.2595261 0.93682104
1.1553884 1.2842746 0.91846424
1.2099319 1.2749068 0.92386651
1.5466652 1.2547055 0.91465878
1.5692321 1.2710255 0.92629874
1.6021665 1.2836819 0.90497869
1.7593706 1.2866472 0.92771965
2.1434433 1.2509012 0.94344705
2.2273936 1.2742949 0.91875905
4.0738478 1.2528541 0.9195953
4.1324086 1.2726921 0.91644597
4.1756954 1.2887866 0.92920601
0.19399461 1.3016701 0.92467201
0.22252896 1.3046738 0.92642528
0.27263123 1.3039424 0.92349356
0.32956704 1.3053471 0.92718405
0.37764168 1.3082886 0.92374474
0.42787525 1.3083062 0.9233253
0.46667868 1.3121008 0.92567432
0.52446067 1.3124145 0.92819595
0.58283836 1.315088 0.92782402
0.61963421 1.318163 0.92563039
0.67600155 1.3217202 0.9240219
0.7251637 1.3264807 0.92228198
0.77694672 1.3286824 0.92757583
0.82591873 1.3295572 0.93012029
0.87307173 1.3304583 0.92595059
0.92424041 1.3330252 0.92455643
0.97728521 1.3357996 0.92180443
1.0159547 1.3405669 0.92628455
1.0702773 1.341313 0.92901045
1.1266932 1.3367707 0.92816597
1.1630601 1.3372163 0.92855245
1.2369435 1.3241675 0.91179192
1.2546349 1.3472462 0.92523938
1.3058131 1.3492655 0.93521839
1.5714062 1.3191494 0.92655355
1.6311561 1.3117114 0.92423421
1.6556011 1.3324709 0.94588071
1.7625806 1.3154039 0.92612398
1.8315043 1.3326681 0.92809254
2.089354 1.3352813 0.93949127
2.1084933 1.3444502 0.92109859
2.1787806 1.3235881 0.92518979
2.2184148 1.3309453 0.90921098
2.2607853 1.3335044 0.90574354
2.3146973 1.3346285 0.93981242
2.3811972 1.3360815 0.93510795
2.4159584 1.3408359 0.91798532
2.4569566 1.3455704 0.90482247
4.2214808 1.3085712 0.91286331
4.2751489 1.3288012 0.92840511
1.0310664 1.3532887 0.92191774
1.1712625 1.3534977 0.91699421
1.2818897 1.3560863 0.92849684
1.3316827 1.3618156 0.92478657
1.363624 1.3686492 0.92240256
1.4307717 1.3648094 0.92685801
1.4760987 1.3718559 0.92822176
1.5295932 1.3720106 0.92643964
1.569306 1.37648 0.9217906
1.6879272 1.3693413 0.92554754
1.725179 1.3766258 0.92643768
1.7606859 1.3647678 0.92650312
1.8856492 1.3911326 0.9288258
1.9167601 1.3879045 0.92429954
1.973421 1.3682669 0.92496747
2.0270672 1.3632612 0.92501831
2.0698655 1.3594351 0.92768514
2.11412 1.3683844 0.9172067
2.1684258 1.3583084 0.9127652
2.2295363 1.3538032 0.90430713
2.2910037 1.3531018 0.94587421
2.3235431 1.3546619 0.9434979
2.4234843 1.3560101 0.93094397
2.4739802 1.361365 0.928128
2.5267 1.367977 0.9263227
2.5747068 1.3651996 0.9229176
2.625195 1.3788917 0.9240284
2.6796553 1.3886868 0.92860591
2.728406 1.3799249 0.92833418
2.7713077 1.3729132 0.92654419
2.8220985 1.3700727 0.92355376
2.8660524 1.3716251 0.9202531
2.9012465 1.3779901 0.91679972
4.3851137 1.3823657 0.9368459
1.8478285 1.4231288 0.92450351
1.8640294 1.4283876 0.92248392
1.9186145 1.4038857 0.92360616
2.9378006 1.4021019 0.92775726
2.9802995 1.4192859 0.92225814
3.0290031 1.4268614 0.92666358
3.074368 1.4275115 0.92897207
3.1196706 1.442268 0.92582148
3.1706586 1.446522 0.93261451
3.2159626 1.448544 0.92328382
3.2931204 1.4472744 0.92456186
3.3195424 1.4306576 0.92529953
4.4423213 1.4151586 0.90674424
1.8142142 1.4532958 0.92812198
3.1316309 1.4526175 0.92517978
3.1808567 1.4529384 0.90363234
3.2323809 1.4514717 0.92483741
3.2610502 1.4586092 0.92187804
4.5378551 1.4612923 0.94079375
4.5612168 1.473363 0.91486692
4.6226616 1.4845109 0.9239043
4.673038 1.4895638 0.91414064
4.7302589 1.4949236 0.92117578
4.7654443 1.4951671 0.94791359
4.8162856 1.4984578 0.93279755
4.8695202 1.4950676 0.93034011
4.9329815 1.4995291 0.92637998
5.2694983 1.4987991 0.92081863
5.3228254 1.4973062 0.9311955
5.3610897 1.495562 0.94260466
4.7839341 1.5037975 0.92188203
4.8223114 1.50195 0.93208784
4.9255052 1.5031542 0.9386062
4.9664159 1.5023254 0.92006189
5.0223389 1.5200638 0.91896152
5.0783238 1.5413269 0.91748446
5.1339402 1.5432028 0.93968993
5.1789727 1.5245892 0.93109959
5.2285109 1.5009398 0.93561012
5.2690392 1.5008756 0.94645607
5.3925419 1.5035386 0.92696059
5.4327846 1.5112481 0.92134619
5.4866209 1.5278144 0.91928279
5.5255108 1.537129 0.91621023
5.5748739 1.5485637 0.92591274
5.6167727 1.5421128 0.92452985
5.6668706 1.5435321 0.92191654
5.8184814 1.5453354 0.94214654
6.0941839 1.5409564 0.92973703
6.1384611 1.5264958 0.91461217
6.1663637 1.516005 0.91445065
6.2252846 1.5161245 0.92634094
6.2719541 1.5290052 0.92264235
6.3207135 1.537333 0.93444717
6.3859262 1.5423706 0.93096697
6.4297929 1.5472782 0.91319329
5.7345009 1.5548429 0.93113565
5.7747774 1.5566432 0.92897356
5.822772 1.5600334 0.91218048
5.8740134 1.5591912 0.92383236
5.9008064 1.5648659 0.90763426
5.991766 1.5645975 0.90313244
6.0517054 1.5578375 0.91539311
6.4357095 1.5526098 0.94285345
6.496047 1.5658876 0.92343324
6.5441751 1.5741045 0.92035872
6.5810089 1.5696533 0.91919231
6.6311536 1.5706451 0.91682935
6.6652007 1.5954702 0.92832404
7.1462202 1.5543967 0.91185224
7.1927943 1.5631093 0.94246817
7.2171264 1.5620317 0.91916221
7.2808275 1.5636404 0.92193919
7.313942 1.5544058 0.92155135
7.6812139 1.5702083 0.9223938
7.756516 1.5936992 0.91689938
6.6401043 1.6178796 0.9269256
6.7625365 1.6292038 0.92041224
7.8037648 1.6040343 0.91391712
7.8663645 1.6138946 0.92854071
7.91325 1.6237433 0.92569661
7.9674926 1.6373557 0.9160797
8.6277657 1.6446295 0.91607469
8.6972122 1.6233941 0.91570383
8.803647 1.6135155 0.91282231
6.6793489 1.6669027 0.91985768
8.4656773 1.6552738 0.92082131
8.572607 1.6668539 0.91577095
9.3700247 1.6815031 0.92801619
9.4107513 1.6851047 0.92630345
9.4672155 1.675464 0.92544568
9.5227814 1.6649733 0.92465007
9.5933933 1.6698406 0.92183888
-8.4859762 -8.4336424 0.98029971
-8.408864 -8.4214582 0.9862147
-8.3777637 -8.4071894 0.98824
-8.2658997 -8.4140577 0.99769062
-8.1152983 -8.4138355 0.96204293
-8.0986605 -8.4146347 0.96315521
-8.4894457 -8.3695326 0.97859192
-8.0322104 -8.3753614 0.96796584
-7.9740586 -8.3703918 0.97258037
-7.9053626 -8.3546677 0.97802812
-7.8640418 -8.3620596 0.98155993
-7.7622137 -8.359746 0.98978841
-8.4976006 -8.3413429 0.97731465
-7.7184324 -8.3315067 0.99294811
-7.6687088 -8.3252134 0.9818601
-7.5645933 -8.313035 0.95995355
-7.5356488 -8.3297243 0.96256006
-7.4750109 -8.3254108 0.96770138
-7.4014421 -8.3010187 0.97319192
-6.9344788 -8.3063602 0.96782249
-6.8809667 -8.3033142 0.97236723
-6.8319521 -8.3124743 0.97656673
-6.785274 -8.323245 0.98040998
-6.7229881 -8.3155746 0.98555982
-6.6792312 -8.3231077 0.98890579
-6.6186304 -8.3272161 0.97663194
-6.3530917 -8.300231 0.9733364
-7.5868778 -8.2916021 0.95768791
-7.359364 -8.2904034 0.97663522
-7.3184052 -8.2800236 0.97994453
-7.2912722 -8.2840281 0.98191953
-7.2278948 -8.278141 0.9870466
-7.1813307 -8.2776508 0.99098819
-7.1214423 -8.2555561 0.99552262
-7.0713401 -8.281518 0.95587105
-7.0119405 -8.2807407 0.96116805
-6.9734054 -8.2955713 0.96451557
-6.5727382 -8.2933731 0.97592348
-6.511879 -8.2655182 0.95986724
-6.4608345 -8.2765751 0.96422952
-6.4222007 -8.2812214 0.96736312
-6.3865533 -8.2897644 0.97054976
-8.4988651 -8.1973505 0.97364908
-2.7030823 -8.1669855 0.97544163
-2.6774831 -8.173831 0.97987288
-2.6430721 -8.1714373 0.99483597
-1.4622262 -8.1629934 0.98845744
-1.4179271 -8.160759 0.97785443
-1.382355 -8.15695 0.97625446
-1.3293405 -8.1620274 0.97773182
-1.2762913 -8.1626139 0.9795658
-1.2167832 -8.1616707 0.97982651
-1.1308516 -8.1514263 0.97960234
-1.0747942 -8.161602 0.9703446
-1.0230908 -8.1590881 0.97197247
-0.98091167 -8.1643391 0.97292286
-0.92237723 -8.1611347 0.97484922
-0.87823582 -8.1541376 0.97664213
-0.8216846 -8.1521931 0.9777562
-0.67193663 -8.155015 0.98043323
-0.62256229 -8.1513262 0.98162454
-0.58580381 -8.1553793 0.96669769
-0.52989346 -8.1513968 0.98316222
-8.4630241 -8.1382952 0.97502553
-2.713824 -8.1313686 0.97696137
-1.434972 -8.1464329 0.97488934
-1.2232244 -8.1416645 0.99816579
-1.1837704 -8.1474285 0.98351896
-0.85414338 -8.1498022 0.97744507
-0.768013 -8.1455736 0.97919631
-0.72348368 -8.1485548 0.97993261
-0.68031967 -8.1473131 0.9655292
-0.62147999 -8.144001 0.95166683
-0.56606108 -8.1467972 0.9677949
-0.52076894 -8.1360531 0.96637505
-0.47172299 -8.1279173 0.9711473
-0.41942504 -8.136879 0.97089034
-0.37418619 -8.1341362 0.97155672
-0.32538858 -8.1283274 0.97258449
-0.28577572 -8.1238356 0.97337049
-0.2267739 -8.127696 0.97351199
-0.17007987 -8.1299343 0.97438896
-0.12000381 -8.1224813 0.9755066
-0.068336286 -8.1221714 0.97577447
-0.0094404202 -8.1168709 0.97637999
0.018778779 -8.1141615 0.97647887
0.068018325 -8.1104145 0.97720355
-2.7163224 -8.0915194 0.97920316
-8.5351553 -8.0392466 0.96666771
-2.6832983 -8.0257769 0.9794417
-8.4984655 -7.959651 0.96773303
-8.2741909 -7.9570565 0.98634118
-8.5117712 -7.9131665 0.96549428
-8.4926643 -7.9264627 0.96744883
-8.2926416 -7.9097681 0.98373425
-2.6719334 -7.9288921 0.97491711
-2.6985028 -7.8733978 0.976695
-8.4643707 -7.8322406 0.96742207
-8.4177227 -7.8175797 0.97099769
-2.7164431 -7.80934 0.97912866
-2.7135677 -7.7747283 0.98128837
-5.8101001 -7.7411542 0.98051995
-2.7202663 -7.7372108 0.97225755
-1.3314495 -7.7393036 0.99276835
-2.7275527 -7.6812115 0.9646681
-2.7285123 -7.6247091 0.97288942
-8.5364532 -7.5652394 0.95380759
-2.7347565 -7.5755801 0.98019725
-2.7415981 -7.517705 0.97775823
-3.9592395 -7.4970136 0.99808484
-3.9123924 -7.4722872 0.96980965
-4.5241461 -7.4403648 0.97032428
-4.2656097 -7.4041195 0.97599196
-4.2397728 -7.4040895 0.97786033
-4.180028 -7.4082546 0.98277903
-4.0820503 -7.439085 0.97366452
-3.8834515 -7.4113512 0.97441363
-1.2546612 -7.4442277 0.96149474
-1.2469356 -7.4055104 0.99292344
-5.3844242 -7.354732 0.98283994
-4.8776078 -7.3534942 0.97526878
-4.8330283 -7.3572655 0.9849301
-4.6667647 -7.380518 0.97641689
-4.5742679 -7.3826189 0.98419178
-4.5362711 -7.3937044 0.97010195
-4.4189262 -7.3678288 0.99748749
-4.3820839 -7.3609262 0.97585225
-4.3286419 -7.3600206 0.97190803
-4.2824726 -7.3748903 0.97540998
-4.2011433 -7.384953 0.98166698
-4.1593132 -7.3990822 0.95188552
-4.0238295 -7.3845301 0.98022687
-3.9807014 -7.388546 0.97831291
-3.9203107 -7.3908782 0.97211599
-3.8590479 -7.3932762 0.97731185
-3.8190293 -7.3643665 0.97377193
-3.7785103 -7.3595228 0.97234809
-3.7225561 -7.3661389 0.96844602
-3.6707854 -7.381072 0.97711295
-3.6241741 -7.3691244 0.96551281
-5.3950262 -7.3397608 0.98197538
-5.3364158 -7.3411655 0.96906924
-5.2158184 -7.3096495 0.98054707
-5.1467838 -7.303185 0.96934766
-4.915513 -7.3400249 0.97212219
-4.5174184 -7.3231101 0.98990411
-4.4221349 -7.3482523 0.96414995
-1.2049116 -7.2613606 0.97845924
-3.4580503 -7.2374067 0.9687131
-3.4143977 -7.2146454 0.97331953
-3.3711629 -7.2200561 0.9763605
-3.3193867 -7.2226973 0.97998768
-3.2856963 -7.2089939 0.97809774
-3.1877587 -7.2228813 0.97512996
-3.1494617 -7.2194805 0.97814941
-2.2948513 -7.164402 0.95591247
-1.2014374 -7.1841378 0.97573692
-1.1856027 -7.1744227 0.95952106
-1.2093703 -7.1206079 0.98930204
-1.1830554 -7.1168861 0.96458632
-1.2183665 -7.0256348 0.9968645
-1.1802847 -7.0246763 0.97213358
-1.7589884 -6.9560709 0.96319664
-1.7266601 -6.9565172 0.96760571
-1.2850617 -6.961092 0.99891597
-1.2259928 -6.976438 0.98486394
-1.1775609 -6.9760818 0.96355009
-2.1788163 -6.9212146 0.98016042
-1.8169395 -6.924263 0.96905714
-1.7807261 -6.9491305 0.97556102
-1.701471 -6.9398465 0.95453268
-1.6804523 -6.9227324 0.97297126
-1.3316588 -6.9286737 0.99966896
-1.2747626 -6.9208922 0.97682834
-1.2213976 -6.9222937 0.95995367
-1.1838402 -6.9384017 0.95371866
-2.1866207 -6.8982615 0.95436066
-1.8332894 -6.8719926 0.9656955
-1.6656883 -6.8830366 0.97191256
-1.6232063 -6.8596902 0.97875249
-1.5852296 -6.8567057 0.98089123
-1.5385497 -6.8525786 0.99656308
-1.3165936 -6.8710279 0.97935838
-1.2765763 -6.882782 0.95954859
-8.5573769 -6.8082285 0.97423619
-2.1391439 -6.831214 0.97570944
-1.8354876 -6.8207879 0.9695186
-1.5585803 -6.8444061 0.98330641
-1.5175362 -6.8385568 0.98334646
-1.4791108 -6.815835 0.96144801
-1.4259775 -6.8167543 0.96906793
-1.375104 -6.8158245 0.97038203
-1.325509 -6.8280258 0.96232283
-8.5576658 -6.7762446 0.97309822
-2.1086831 -6.7710104 0.98201108
-1.8558825 -6.7537732 0.98630583
-1.8374747 -6.7743425 0.97315264
-1.367527 -6.7952013 0.95846075
-2.0114875 -6.7054038 0.98002142
-1.9517901 -6.710113 0.98372501
-1.8761997 -6.7354193 0.97102767
-2.0644453 -6.6803956 0.96971637
-2.0200102 -6.6777267 0.96601808
-1.9445902 -6.6932454 0.95973736
-2.0536842 -6.6443729 0.95607269
-8.5663414 -6.2676272 0.99766552
-8.5423899 -6.275959 0.9707787
-8.5655756 -6.2428894 0.99669594
-8.5433741 -6.2168174 0.96841121
-8.5549469 -6.1738267 0.98062867
-8.5427589 -6.1881166 0.97037125
-8.5636053 -6.1001735 0.99134219
-8.5496006 -6.135437 0.99406421
-8.5820751 -6.0441127 0.98748177
-8.6044979 -5.9726195 0.98250908
-8.6208048 -5.9263544 0.97913182
-8.6198912 -5.8717399 0.97663379
-8.6154261 -5.8377891 0.97549051
-8.5981932 -5.8190174 0.97610182
-8.5836544 -5.7806783 0.97545409
-8.5869904 -5.7190247 0.97247577
-8.5898628 -5.6715684 0.96982694
-9.6440134 -5.6408653 0.97014678
-8.585227 -5.6164379 0.96770114
-9.7820501 -5.5928483 0.95633703
-9.6406898 -5.5918651 0.96776056
-8.5724468 -5.5581322 0.96619272
-9.8713398 -5.5153766 0.99238962
-9.6407595 -5.5422072 0.96492702
-8.6146584 -5.5208578 0.96076339
-8.5835285 -5.536839 0.96436369
-10.277309 -5.467176 0.95803738
-10.222793 -5.4900479 0.96363133
-10.144034 -5.4898806 0.96961099
-10.077459 -5.4940686 0.9751156
-9.9648771 -5.478579 0.98297399
-9.5605631 -5.4936895 0.96884465
-9.4872723 -5.4917402 0.97470337
-9.4159479 -5.4901509 0.98045242
-9.3415337 -5.4756303 0.98571384
-9.2932262 -5.4712648 0.9894824
-9.2396154 -5.4663558 0.9935472
-8.7087135 -5.4767113 0.97188938
-8.639658 -5.4971542 0.97879446
-10.313667 -5.4201784 0.96474147
-8.8312321 -5.4269953 0.98083895
-8.7651997 -5.4455085 0.98730528
-10.32018 -5.3685231 0.99804294
-10.323889 -5.321908 0.99474812
-10.331801 -5.277688 0.99144661
-10.323094 -5.2235837 0.98860472
-10.324468 -5.1820946 0.98605055
-10.317878 -5.1343136 0.98371696
-10.296921 -5.1295614 0.98484671
-12.115771 -5.0530195 0.95452613
-11.484968 -5.0716743 0.99841493
-11.973443 -5.0295939 0.96271801
-11.842597 -5.0095444 0.97013944
-11.471516 -5.0129151 0.99537098
-10.306543 -5.0483718 0.97899127
-11.694538 -4.9973974 0.97925204
-11.50969 -4.9721975 0.99006087
-11.454036 -4.9757986 0.99403274
-11.441883 -4.9562998 0.99349344
-10.371088 -4.9512277 0.96792918
-10.335221 -4.9854908 0.97287148
-10.299208 -4.9773626 0.97508156
-11.426303 -4.9360023 0.99308151
-10.414727 -4.9353251 0.96358913
-10.435129 -4.8916268 0.95917249
-13.909788 -4.4188166 0.97427404
4.1972122 -4.4094176 0.97951734
4.225708 -4.4310951 0.97582799
4.2662826 -4.4327168 0.97057986
4.3150702 -4.4169054 0.97619778
4.9906697 -4.4136152 0.97902226
5.0196686 -4.4233036 0.97559667
5.0569868 -4.4183235 0.95793903
5.4162688 -4.4073606 0.99568617
-13.915134 -4.3749957 0.97039026
4.2010083 -4.3809357 0.97553784
4.3306894 -4.3967409 0.97437835
4.3788199 -4.3870845 0.9802587
4.404572 -4.3976598 0.9887318
5.0969806 -4.3980808 0.96574128
5.1733489 -4.3947768 0.98572922
5.2201176 -4.3951106 0.97319603
5.2767019 -4.3957534 0.97079331
5.3238354 -4.3960361 0.96517193
5.3782015 -4.3976564 0.97257853
5.4298248 -4.3937144 0.97997135
5.4735956 -4.3812861 0.97464073
5.5333505 -4.3697691 0.96776354
5.5658174 -4.3617797 0.96846181
5.621172 -4.3727336 0.97162223
5.6691699 -4.3775606 0.97537023
5.7214537 -4.373127 0.97423291
5.7580242 -4.3593411 0.96979105
5.8013301 -4.3511205 0.95032513
6.2178273 -4.35252 0.99327153
6.2651196 -4.3529568 0.9578836
5.7887821 -4.3417172 0.98011529
5.8298163 -4.3286672 0.97537148
5.8808427 -4.3210478 0.9839049
5.9368668 -4.3193979 0.97769117
5.9733257 -4.3259177 0.97386783
6.0233049 -4.3389473 0.96886528
6.0622725 -4.3432131 0.97959703
6.1137228 -4.3477345 0.97416639
6.1563692 -4.3467121 0.98455286
6.2048798 -4.348587 0.96427095
6.2714362 -4.3356276 0.97692817
6.3275967 -4.3015041 0.97990596
6.3909101 -4.2780409 0.97237253
6.431488 -4.2567511 0.98272127
6.5615835 -4.2558889 0.96906018
6.6233764 -4.2590241 0.97855735
6.7641726 -4.2647176 0.96433002
6.8749847 -4.2818289 0.95384145
6.9753685 -4.274991 0.97614515
7.0456314 -4.2646203 0.9686175
7.0779281 -4.2551537 0.96497577
6.4675398 -4.2478495 0.97855914
6.5158844 -4.2442884 0.97340208
6.6616645 -4.2494431 0.9742527
6.7233791 -4.248415 0.96772587
7.8195763 -4.2107677 0.97989899
8.3478651 -4.2061915 0.95053965
8.3549633 -4.2053328 0.98844582
7.4174399 -4.1981397 0.97471792
7.4692798 -4.1869292 0.98101169
7.5271435 -4.1722469 0.96918011
7.8633194 -4.1966753 0.9751187
7.9190292 -4.1872988 0.96950603
7.9666605 -4.1798458 0.98292989
8.4287739 -4.1882458 0.98127192
8.4756899 -4.1687789 0.97612911
8.5432043 -4.1596026 0.96991819
9.6676598 -4.1649575 0.96139777
8.9827032 -4.1063747 0.97024763
9.0341244 -4.0994072 0.96575081
9.0901279 -4.0944281 0.96083373
10.527938 -3.5015113 0.98752773
7.4498439 -3.4502869 0.95356387
7.4707532 -3.473542 0.96986634
10.537266 -3.4962895 0.98657322
10.533146 -3.4483824 0.9833343
10.567286 -3.4163258 0.9785763
7.718401 -3.3911982 0.97635531
7.7865963 -3.3916211 0.9703635
7.8605824 -3.3866174 0.98112863
7.9543686 -3.3837337 0.97269928
8.5026436 -3.3738198 0.98075211
8.5754929 -3.3682623 0.97439516
8.6277504 -3.3581617 0.96933901
8.6719952 -3.3417447 0.98398757
10.524813 -3.281862 0.97125018
10.534826 -3.2345123 0.96697974
10.561918 -3.1869032 0.96146232
-9.0115995 -3.0531902 0.98286831
-9.0780001 -2.9984317 0.97378135
10.531219 -2.9787562 0.99386048
-9.6016598 -2.9011183 0.97061884
-9.1568956 -2.9278266 0.96263725
-7.7025704 -2.9066379 0.98098224
-7.695281 -2.9061747 0.98166317
-9.6460466 -2.8775241 0.96562946
-9.4017954 -2.8973575 0.98439115
-7.6897798 -2.8885589 0.9808619
-6.5244241 -2.8206017 0.97974366
-5.2577529 -2.8227694 0.97984391
-5.242681 -2.8322763 0.99034643
-9.6686125 -2.7696776 0.99897462
-6.5545044 -2.7698605 0.98328328
-6.5382676 -2.7739823 0.97806913
-5.2610054 -2.7726378 0.98078823
-5.241137 -2.7997518 0.99686712
-9.6763687 -2.7281921 0.9804489
-6.5328207 -2.745559 0.96370429
-5.2687364 -2.7220383 0.97690451
0.47493076 -2.7008147 0.97371697
0.51103199 -2.7049665 0.97563928
-9.6675758 -2.6670108 0.99062836
-5.3572717 -2.6584589 0.96280634
-5.3182096 -2.6666641 0.96789157
-5.275259 -2.6818242 0.9737699
0.27659932 -2.6619256 0.97463679
0.32717252 -2.6630704 0.97508866
0.37440598 -2.676177 0.97460693
0.42573416 -2.6833513 0.97594285
0.47783196 -2.684305 0.97490197
0.52737695 -2.6791995 0.97521734
0.57172751 -2.6676056 0.9751128
0.60844815 -2.6626778 0.97599012
0.73487538 -2.6645288 0.97567791
0.77976221 -2.6722379 0.97494423
0.82297194 -2.6771085 0.97322357
0.87450749 -2.6687996 0.97487319
0.92570353 -2.671597 0.9734261
0.98455673 -2.6696432 0.97400951
1.0299537 -2.6701374 0.97463912
1.0791551 -2.6678107 0.97516298
1.1241881 -2.6730592 0.97323835
1.1759446 -2.6666732 0.97281688
1.2234141 -2.6569982 0.96912986
1.2726265 -2.6539278 0.96831447
1.3303912 -2.6575086 0.97329187
1.3719728 -2.6633968 0.96677506
1.4189897 -2.6544681 0.97179151
1.5732689 -2.657275 0.95369583
1.6009943 -2.6522434 0.95728087
1.7193695 -2.660697 0.97308463
10.518681 -2.6713865 0.96987796
-9.6799202 -2.6068997 0.98487025
-0.91235662 -2.6489668 0.99926579
-0.7739225 -2.6118493 0.98940861
0.26223227 -2.6277192 0.97953266
0.46353066 -2.6438227 0.98173612
0.5957464 -2.6009998 0.97680193
0.6075716 -2.6344943 0.97241896
0.71180624 -2.6349835 0.97921193
1.0857308 -2.6495018 0.99858975
1.1587828 -2.6444914 0.99185967
1.2319827 -2.6461792 0.9831447
1.280984 -2.6427467 0.97568625
1.306924 -2.6455526 0.97866529
1.3708129 -2.6473479 0.9947542
1.4289999 -2.6465855 0.97530937
1.4726191 -2.6360486 0.97355235
1.524066 -2.633055 0.9740904
1.5703535 -2.6396396 0.97512871
1.6230056 -2.6327245 0.97384703
1.6770302 -2.6247287 0.97241634
1.7182075 -2.6313336 0.97740144
1.7766711 -2.6194012 0.97169977
1.814748 -2.6209755 0.97438663
10.526479 -2.6272421 0.96572185
-9.6807842 -2.5660868 0.98147362
-1.852964 -2.5701115 0.96590412
-1.8289942 -2.5675139 0.97501957
-1.7949119 -2.5586593 0.97508621
-0.79734063 -2.5640733 0.96450955
0.25134495 -2.5947421 0.98777497
0.58546674 -2.5738115 0.97474593
0.68586755 -2.5772278 0.96141768
1.7649944 -2.5727227 0.97532064
1.8016659 -2.5934319 0.9744572
1.903935 -2.5786796 0.97681868
-9.6745424 -2.5486822 0.98044991
-1.9154241 -2.5104208 0.97252256
-1.8723487 -2.5112245 0.97361648
-1.8448217 -2.5325334 0.97684079
-1.7682401 -2.5368164 0.98825806
0.237083 -2.5022211 0.96517974
0.57569849 -2.5185976 0.97691345
0.63785797 -2.507895 0.97258627
0.66715723 -2.5354886 0.9752363
1.8307519 -2.5121844 0.97652936
1.8710409 -2.517791 0.97366863
1.9014636 -2.5429225 0.99567378
-5.6011248 -2.4720039 0.96071219
-5.5888205 -2.4588485 0.97409397
-5.5270672 -2.4535437 0.99327332
-1.9085722 -2.4992316 0.99003619
-1.8761008 -2.4792213 0.98167604
0.23166609 -2.4525163 0.99319243
0.58359808 -2.4955807 0.97362494
0.61469048 -2.4934509 0.97719538
1.7995458 -2.4959083 0.9839372
1.8810751 -2.4773273 0.97585964
1.9284912 -2.47174 0.97784293
1.9568563 -2.4809303 0.9746483
-5.610682 -2.4320929 0.97425491
-5.5801439 -2.4386725 0.97109842
0.22658119 -2.4369535 0.96197689
1.8858289 -2.4248214 0.97506237
1.9193524 -2.4442782 0.99821168
-9.6857576 -2.3805473 0.96589291
-5.6135416 -2.3800561 0.96796805
0.21897253 -2.3805788 0.97284806
10.507171 -2.351474 0.99045515
-5.6140161 -2.3483031 0.97668898
-5.5859051 -2.3470998 0.97978604
-4.1530776 -2.3031566 0.99617684
-4.1390276 -2.3116167 0.96940774
0.21053895 -2.3150997 0.99206579
10.513661 -2.3237588 0.98772091
-5.6379671 -2.2769778 0.98203033
-4.1552792 -2.2952733 0.96612561
-4.1251121 -2.2768345 0.98017722
-5.6474943 -2.2396216 0.96541411
-4.1183257 -2.2254059 0.97026503
-4.0928545 -2.2111926 0.99429452
0.19843394 -2.2354991 0.98950344
-4.2843285 -2.1719356 0.99003971
-4.1704993 -2.1647029 0.98551339
-4.1173048 -2.1663599 0.96341622
-4.0884051 -2.172478 0.98671901
-4.1603913 -2.1469634 0.98581702
-4.1177669 -2.1321909 0.96653199
-9.6933212 -2.0735555 0.9844718
-4.1079016 -2.0730579 0.9777593
-4.0958977 -2.0913517 0.98388767
-9.706893 -2.022146 0.97928721
-9.6950245 -2.014164 0.97887051
-4.1235509 -2.0191555 0.97030371
-9.7065659 -1.9653091 0.97429883
-9.692687 -1.9719896 0.97558063
-4.4699631 -1.953495 0.95049322
-4.4066415 -1.9677644 0.96022463
-4.2740197 -1.9616449 0.97782618
-4.205862 -1.9666468 0.98740673
-4.1709995 -1.9830121 0.99325681
-4.1365314 -1.9759676 0.97012949
-9.7074614 -1.9288298 0.97129458
-9.6998167 -1.9374713 0.97258937
-4.3349328 -1.9439156 0.96818078
-4.2526584 -1.9207197 0.95817333
-4.1697187 -1.9256145 0.96062338
-4.1448097 -1.9425297 0.9653551
-9.716095 -1.8851261 0.9670431
-4.2104425 -1.864697 0.96015161
-4.1607056 -1.884333 0.96857685
-4.1407366 -1.8795387 0.99012446
-2.3156493 -1.8624699 0.95423681
-1.8876543 -1.8005242 0.96016872
-2.3194275 -1.7831064 0.95043522
-2.2561924 -1.7705547 0.96176189
-2.1912501 -1.7573097 0.96464831
-1.9039724 -1.755419 0.97894007
-1.8923812 -1.7543427 0.98216861
-2.2587881 -1.721094 0.95178318
-2.216027 -1.7246113 0.96272755
-2.1198986 -1.7318598 0.97900808
-2.0790758 -1.7228715 0.97528565
-2.0291543 -1.7085309 0.99357998
-1.8839307 -1.7449684 0.99387765
-2.1958861 -1.6866097 0.96613252
-2.1164045 -1.6822497 0.96840596
-2.0765905 -1.6857414 0.97799355
-2.0258682 -1.6824889 0.99178481
-1.9911716 -1.6668162 0.99677825
-2.2146456 -1.6198616 0.95802349
-2.1692314 -1.621315 0.9696126
-2.1239867 -1.6366999 0.98184007
-2.0205693 -1.6239631 0.97726095
-1.9831892 -1.6458046 0.99804521
-2.1070123 -1.5642964 0.97181612
-2.0676737 -1.5714979 0.97730863
-2.0201781 -1.5713097 0.9735086
-1.9866471 -1.5771356 0.98168904
3.0827122 -1.5656641 0.96850109
3.1213105 -1.5746903 0.98007137
-1.9531646 -1.5449046 0.9910987
-1.9112558 -1.5173196 0.97341663
-1.8879467 -1.5125544 0.98258841
2.2266092 -1.5423377 0.95329237
2.9760106 -1.5010527 0.95806372
3.0097833 -1.505548 0.97143698
3.0846634 -1.5316528 0.98150295
-1.9191581 -1.4945208 0.96553588
-1.8863435 -1.4960405 0.97803009
2.2063313 -1.4782388 0.95507926
2.5324435 -1.4644558 0.98352307
2.6825984 -1.4687766 0.99135488
2.7344534 -1.4593521 0.97977877
2.9266348 -1.4596349 0.97152907
2.9840343 -1.4789891 0.97264785
3.0228317 -1.4706678 0.99522322
1.9196956 -1.4206026 0.96513677
1.9554057 -1.4165407 0.96708983
2.0867538 -1.418643 0.99342656
2.1234658 -1.4157366 0.98972958
2.1655595 -1.4138107 0.98143053
2.3232288 -1.4000067 0.9592647
2.4787846 -1.4136735 0.97920465
2.5905247 -1.4342289 0.9682045
2.6613231 -1.4477544 0.95902264
2.9902327 -1.448295 0.96887666
3.0313504 -1.4436898 0.97606468
3.071759 -1.4323477 0.98495513
3.1100726 -1.4190091 0.98629993
1.9220827 -1.3632885 0.97788525
1.9833672 -1.3763087 0.96034724
2.1303101 -1.3655324 0.98605287
2.1546035 -1.3895509 0.97297806
2.2241132 -1.38328 0.9835546
2.3135834 -1.3870579 0.99175376
2.5606432 -1.3565899 0.98584545
3.1193385 -1.3929613 0.98249769
1.8482132 -1.3080878 0.97924948
1.8912448 -1.3050057 0.97328109
1.9219866 -1.3053416 0.96999127
1.9635632 -1.3051434 0.96034008
2.0208483 -1.3020599 0.97920483
2.0889711 -1.3040645 0.99813205
2.1363156 -1.3062686 0.98648912
2.1594954 -1.3073518 0.97631121
2.2302799 -1.3033665 0.95492011
2.2600589 -1.3217803 0.9742862
-1.9890565 -1.2587098 0.95079362
-1.9104784 -1.2562549 0.9742381
-1.8701147 -1.2565128 0.97551781
-1.8391806 -1.2564106 0.97322905
-1.7879369 -1.2566782 0.96798378
1.8395512 -1.2920148 0.983621
1.8884547 -1.2951163 0.97027785
1.9203484 -1.2954333 0.97043961
1.9643831 -1.295303 0.9649052
2.0107844 -1.2972636 0.97554249
2.0954974 -1.2920463 0.99593961
2.1259923 -1.2958921 0.98834723
2.1698084 -1.2954432 0.96935332
2.2235992 -1.2968791 0.95600474
-1.908859 -1.2447449 0.97291207
-1.8693751 -1.2448561 0.98198348
-1.8385477 -1.2454253 0.98327142
-1.9002234 -1.1522027 0.96330076
-1.8649831 -1.173823 0.97295713
-1.8441222 -1.1898639 0.97802997
1.8484771 -1.1559353 0.96949571
1.8547236 -1.1554263 0.97363311
1.84825 -1.14138 0.9716748
1.8544399 -1.1410125 0.9804889
1.8430412 -1.0847577 0.96065748
1.8783556 -1.0797067 0.97478652
1.9101853 -1.0616854 0.96484303
1.8835599 -1.0315233 0.97437221
1.912869 -1.0313646 0.97381204
1.955009 -1.0031408 0.97079295
-6.6150432 -0.97604114 0.98835087
1.8843044 -0.98147982 0.96651095
1.9152817 -0.97976166 0.97441339
-6.6686792 -0.92937744 0.97993743
-6.6378489 -0.92208821 0.98161095
-2.5123689 -0.93435603 0.98927444
1.8695138 -0.92331856 0.97005576
-6.4027991 -0.89328498 0.96800297
-6.3645225 -0.87089282 0.9689759
-6.3373566 -0.85188645 0.96936476
1.9538945 -0.86765623 0.956442
-6.595798 -0.81247479 0.97451794
-6.4125943 -0.80616105 0.98780656
-6.3518777 -0.83014792 0.96614748
-6.341784 -0.81327569 0.96537793
1.895929 -0.84825861 0.99999464
1.9405066 -0.81502545 0.99224913
1.9912916 -0.76715046 0.98727781
2.0175707 -0.77692509 0.98550737
-6.5810971 -0.73109263 0.96794254
-2.5579321 -0.72663599 0.99232906
-2.3648815 -0.73003262 0.95768422
-2.3350062 -0.72303832 0.95704508
-1.9008363 -0.70445472 0.96052504
-1.8774389 -0.70740139 0.96461916
1.909035 -0.71524572 0.99299639
2.0094199 -0.72970694 0.98471874
-6.6493969 -0.69088459 0.95895207
-2.4833145 -0.66599149 0.95548236
-2.4251328 -0.6802358 0.9506762
-2.3742337 -0.67649782 0.97676235
-1.9556385 -0.6817314 0.96375948
-1.9120178 -0.68324685 0.97035402
-1.8855357 -0.68400836 0.98226953
-0.11226831 -0.6542033 0.99782503
-0.09015131 -0.65445447 0.99773306
0.24413842 -0.65127409 0.9989695
1.920777 -0.66819662 0.99419451
1.9765419 -0.68105811 0.98779446
2.0328076 -0.66269213 0.97937983
2.0538349 -0.65298879 0.96173966
2.1174598 -0.68366957 0.96634316
2.3200345 -0.6774224 0.98230612
-2.5817156 -0.64289224 0.95251828
-2.5068002 -0.61320066 0.96221703
-2.4478998 -0.61089873 0.98454905
-0.11604194 -0.63184935 0.98502535
-0.088626295 -0.63485098 0.98713326
-0.010215431 -0.60515475 0.9958359
0.030675409 -0.62197137 0.98989201
0.078470126 -0.62127662 0.99608475
0.13595447 -0.61959708 0.99513429
0.17565116 -0.61855644 0.9876979
0.22902651 -0.62457472 0.98638988
0.25144431 -0.61192816 0.97268879
1.9464481 -0.64096916 0.98956251
1.9819676 -0.61725891 0.98428142
2.0231893 -0.62132603 0.98256457
2.0755887 -0.6416918 0.96601659
2.1425784 -0.62776947 0.95159006
2.2764995 -0.60705411 0.97023451
2.3319731 -0.62464315 0.98273742
2.3925893 -0.6170947 0.97313493
2.4137816 -0.61378527 0.97299963
-2.1313131 -0.57407153 0.97653288
-0.11296804 -0.58621061 0.99232507
-0.094601974 -0.57477832 0.97824126
-0.0080730971 -0.58378673 0.98450255
0.028934343 -0.57542455 0.98423046
0.07655523 -0.57308108 0.98131275
0.13371287 -0.57295895 0.98345929
0.16459234 -0.57006782 0.97228253
0.22252263 -0.5727523 0.972179
2.2836387 -0.55089587 0.95992976
2.3231256 -0.57650173 0.97994208
2.372057 -0.57382238 0.97868729
2.4138663 -0.58125699 0.97414404
2.4899032 -0.58681995 0.95688397
-9.1232424 -0.50086379 0.95739669
0.0086963903 -0.53489554 0.95263916
0.07641831 -0.54788756 0.96435028
0.12071228 -0.54173428 0.96371573
0.16960232 -0.52932233 0.97081697
0.22326678 -0.52581304 0.98063451
2.391463 -0.54526782 0.972399
2.4179504 -0.54136842 0.98091042
-9.1022129 -0.47756088 0.9563331
-3.1180072 -0.47476774 0.9740839
-3.0810254 -0.45880035 0.96015424
0.24485077 -0.47801992 0.97551376
0.25346756 -0.47003657 0.98010218
1.9250588 -0.47132841 0.99189687
-9.0930519 -0.43693641 0.96650583
-3.2829847 -0.42562127 0.95263296
-3.2120249 -0.42439973 0.9775883
-3.1894422 -0.4391191 0.95965379
-3.0783167 -0.44557673 0.9907552
-3.0385847 -0.44074625 0.98827839
0.24658315 -0.43077627 0.964221
0.25838342 -0.43744159 0.97734767
-9.0685205 -0.37946549 0.98934895
-9.0373888 -0.35886669 0.98893893
-5.4513402 -0.35506341 0.96623933
-5.301754 -0.37202477 0.9804635
-5.2931552 -0.36691904 0.96453357
-3.0053997 -0.36395976 0.95758367
-2.9833028 -0.36888951 0.97366798
-1.9711802 -0.35855541 0.9779374
-1.9368854 -0.37588972 0.9720701
-5.3074932 -0.34812325 0.96534526
-5.2865863 -0.33237466 0.96551114
-3.0042386 -0.32104895 0.97019464
-2.9837179 -0.3255403 0.97941524
-2.0675097 -0.30807278 0.97271585
-2.0269485 -0.32484543 0.974859
-1.9621698 -0.32605606 0.97446382
-1.9498158 -0.3333953 0.97753745
-10.495391 -0.27611005 0.95614809
-5.3292909 -0.26013264 0.96645164
-5.2887473 -0.28400058 0.98844504
-3.0672061 -0.27726388 0.96309537
-3.0289638 -0.29918832 0.98586112
-2.1290987 -0.28683457 0.98019093
-2.0960484 -0.29725266 0.960186
-1.952792 -0.2902979 0.97710931
-1.945875 -0.26764071 0.97696066
-10.509336 -0.23975298 0.99889386
-5.2399201 -0.2106172 0.96879631
-1.9542288 -0.21463743 0.97014254
-1.9439615 -0.2294676 0.97795486
-10.501503 -0.1771909 0.99333209
-5.4148736 -0.17506383 0.97530198
-5.2862864 -0.15813424 0.97150362
-1.9510311 -0.19759262 0.98459345
-1.9378996 -0.1759396 0.97607946
0.048476856 -0.15008211 0.99700618
-5.4340229 -0.13431348 0.96950078
-5.32307 -0.12416958 0.95264769
-5.2907515 -0.13045381 0.98031265
-1.9504507 -0.13248315 0.97079676
-1.944298 -0.12640662 0.97471148
-0.028546512 -0.10916653 0.99323654
0.024956485 -0.11201441 0.99025977
0.054215286 -0.11327358 0.99126804
-10.479021 -0.09428893 0.98645627
-5.5435486 -0.075058758 0.95458663
-5.2408199 -0.089542188 0.95579726
-1.9601511 -0.095016889 0.97526884
-1.9213762 -0.091256358 0.9755584
-1.8815547 -0.072784729 0.97398329
-0.021160357 -0.083089337 0.9936676
0.028421339 -0.07875865 0.99121541
0.053215168 -0.095275417 0.98874158
0.21534033 -0.052930385 0.99836165
-10.492768 -0.030156828 0.97985673
-5.4198465 -0.049143866 0.9615826
-5.2084818 -0.037276231 0.95281082
-5.1928921 -0.02289197 0.95256096
-1.8749237 -0.022429515 0.97749788
0.017559592 -0.045677934 0.99443746
0.24194102 -0.01857747 0.9759137
1.9606487 -0.020887405 0.99665403
-5.7789865 0.029959898 0.95151883
-5.3715348 0.0015191351 0.95993167
-5.3181734 0.025522558 0.96154946
-1.9419857 0.03564455 0.97314692
0.22383592 0.014078075 0.97181439
0.25724328 0.012722285 0.9613654
1.9512885 0.032945447 0.99790728
2.0221553 0.031096691 0.97169781
-5.646276 0.065603137 0.95755541
-5.5779457 0.069399685 0.96223438
-5.5318794 0.078100875 0.96471775
-5.4621205 0.078547582 0.96981663
-5.4257336 0.092866242 0.9709307
-5.3049297 0.06957265 0.95777303
-1.9513524 0.089269675 0.96745336
-1.9458975 0.072295099 0.97729069
0.21864274 0.092626557 0.96153879
1.7949367 0.095864333 0.97922999
1.8165928 0.097317204 0.98146087
2.0410063 0.099935859 0.9714427
2.0655296 0.063084155 0.96845329
2.1095264 0.091698855 0.9627921
-10.494449 0.14721613 0.96292627
-5.407093 0.1200676 0.96935648
-1.9540117 0.1123444 0.97556216
-1.9424177 0.13982406 0.97207308
0.084156513 0.14565019 0.99644846
0.11823659 0.14456454 0.99686301
0.196915 0.1358602 0.96833092
0.21214692 0.12153132 0.97499371
1.7754525 0.11818864 0.97572762
1.8266281 0.10184823 0.96781272
1.8691911 0.11739983 0.96724963
1.9182422 0.14369947 0.96481502
2.0822253 0.12600215 0.97130167
2.1170201 0.13290253 0.95932388
-10.507201 0.17943513 0.95935315
-5.4751387 0.16103321 0.95989048
-1.9511278 0.16237387 0.97877055
-1.9447364 0.17204113 0.97451824
0.039521024 0.1773482 0.99355507
0.082952186 0.18181622 0.99326646
0.12691796 0.15856695 0.99149811
0.1740977 0.18263468 0.98189718
0.21354045 0.17048845 0.97878671
1.7917509 0.17787646 0.97438002
1.8168906 0.19065015 0.96461147
1.99022 0.18587619 0.97532356
2.0323112 0.19072139 0.98150921
2.0509183 0.17663416 0.97147703
2.1787076 0.16068126 0.95060498
-10.500402 0.24236688 0.95365071
-1.9552753 0.21676642 0.97022843
-1.9476779 0.21298294 0.98311698
0.075746536 0.23749027 0.98689866
0.19666533 0.2022147 0.97409576
0.20519739 0.21801421 0.96792293
1.799125 0.20323828 0.98509061
1.8317258 0.21870925 0.97213531
1.8620191 0.23068622 0.98123074
2.0412331 0.21407552 0.97096586
2.0797803 0.2318676 0.96787
-1.9615775 0.27684432 0.96912533
-1.9488083 0.25787127 0.97565836
0.071930841 0.28609818 0.97827715
0.21585552 0.25985223 0.95178777
1.8888847 0.25383279 0.98355746
1.9255247 0.28509045 0.98331422
2.1211197 0.27889267 0.98204172
6.9838028 0.28525507 0.97430271
7.0247293 0.26775381 0.97378832
-10.501113 0.3092069 0.99428576
-2.0035965 0.32597855 0.98260146
-1.985256 0.30830628 0.97620028
0.073659703 0.32942444 0.97170395
1.9450686 0.31998491 0.96271759
1.979319 0.3496668 0.96349019
2.1578526 0.31055483 0.95968503
2.2141416 0.34609574 0.99380463
2.4475133 0.32133725 0.97070312
-2.0770321 0.38774559 0.98714763
-2.043273 0.35999277 0.96552289
0.075110272 0.3709549 0.9788186
2.432802 0.37174794 0.98943681
2.4840083 0.39118439 0.9804436
2.5098491 0.38576841 0.97844619
7.9973898 0.37690097 0.99602705
8.0230742 0.3789275 0.95904845
8.0769558 0.39611876 0.99042189
8.1548901 0.3988122 0.9865613
-4.1900797 0.43939209 0.96036458
-4.1293812 0.43050441 0.97994286
-4.0938525 0.4364267 0.96872306
0.077010013 0.42227608 0.97375137
1.9692091 0.43873182 0.99272811
2.0146241 0.43022418 0.97773051
2.0664637 0.44505093 0.97472852
2.4332592 0.42282972 0.98388052
2.4586992 0.42832041 0.98474538
2.5209217 0.40964758 0.99304914
8.3590279 0.42670077 0.97436023
-8.5817289 0.45757923 0.97102821
-4.3390441 0.49594966 0.96221238
-4.2248678 0.45564553 0.98639774
-4.0607319 0.45730376 0.97885609
0.024319557 0.48896122 0.99091619
0.077473201 0.46913692 0.96478057
2.0478568 0.49627095 0.97296822
2.0669215 0.49337104 0.97539502
2.4281883 0.45535314 0.9691118
2.53145 0.49682984 0.98419309
-8.6652813 0.53259718 0.95999068
-8.470355 0.51405132 0.97038686
-4.3582296 0.50527376 0.98077881
0.023276716 0.51419997 0.99145567
0.075627021 0.51582909 0.96627206
2.025691 0.51831228 0.98303771
2.0730958 0.52001458 0.974217
2.6165078 0.53642225 0.98969769
10.907179 0.53402752 0.99003184
-8.8431759 0.5851931 0.98690945
-4.9819732 0.59551746 0.97897142
0.018757496 0.57650888 0.97686702
0.080205321 0.57093656 0.97461307
2.0356922 0.58512431 0.9853816
2.0716565 0.57088763 0.97685593
2.1097898 0.57707119 0.97522479
2.6323624 0.58384663 0.95937991
2.6738238 0.57052934 0.97555578
2.7098734 0.5820691 0.97320664
10.884695 0.56520021 0.98778886
-8.7638092 0.60888684 0.98781431
-8.7039623 0.60256404 0.99085128
-8.3713531 0.6086902 0.96539587
-5.1292953 0.62023455 0.9704318
-5.0697546 0.61232209 0.97525287
-5.0279551 0.60783327 0.97850204
-4.9809356 0.60812855 0.98551387
-4.694232 0.62751925 0.97521251
0.01183748 0.60852373 0.98021525
0.079648226 0.63023561 0.98751956
1.9947816 0.63713109 0.99377453
2.0318675 0.62255967 0.98686242
2.0844717 0.62182283 0.97565502
2.11972 0.63382816 0.97610623
2.6760309 0.60304326 0.99449718
2.7945259 0.63434076 0.9786498
2.818336 0.64944345 0.95920271
10.882756 0.64610839 0.98006529
-8.2554932 0.6767779 0.96371698
-8.1189632 0.67344075 0.97010219
-8.0387955 0.68270576 0.97271293
-7.9429255 0.6842621 0.97675729
-7.8795838 0.69093841 0.97881716
-5.3510866 0.68348449 0.96157652
-5.3310146 0.67868358 0.98879766
-4.8318887 0.68392897 0.99427968
0.045364976 0.66338766 0.99120808
1.9910278 0.66454047 0.99510944
2.0388446 0.6692434 0.98053777
2.0753968 0.68070447 0.98114407
2.1110339 0.65716648 0.97267985
2.8776076 0.68577445 0.99322152
-10.282217 0.71758109 0.96294123
-7.8248429 0.70026088 0.98027307
-7.7631989 0.7080909 0.98214662
-7.7016711 0.71525311 0.98411596
-7.6169438 0.71519184 0.97030568
-7.5063152 0.71039855 0.97580814
-7.4324408 0.714791 0.97875714
-7.336422 0.71675193 0.98291236
-7.2829838 0.72839183 0.96736801
-7.2405219 0.73997778 0.96821022
-4.9904013 0.71465385 0.96879649
1.9941705 0.71775025 0.99322414
2.0259895 0.74006212 0.98105556
2.0599735 0.74941713 0.97303247
2.126087 0.70569229 0.97493345
2.1698489 0.73110759 0.96615577
-10.244242 0.75591445 0.96059793
-10.166785 0.78706682 0.96035951
-7.2182298 0.77815378 0.9787032
0.03986384 0.75186116 0.97575259
0.10976095 0.7921356 0.98386139
2.0359788 0.76873851 0.9868449
2.0797215 0.76227599 0.98157942
2.1009634 0.7731874 0.95198131
2.8729379 0.75982165 0.95165282
-10.193547 0.82091928 0.95613319
-7.2115393 0.83402824 0.97659093
0.031231787 0.83847088 0.97125268
0.11932508 0.80473 0.99476624
1.9948313 0.8157084 0.99192262
2.0318716 0.81909484 0.985627
2.0744326 0.81473684 0.98220003
2.1105602 0.83961385 0.95170897
2.1898496 0.84683794 0.95636749
-7.2109475 0.87746733 0.96880138
-6.540051 0.89288014 0.95482701
-2.7586796 0.88375962 0.97386175
-2.7318068 0.88317209 0.96817994
-1.8279936 0.89389056 0.98525608
-1.7825264 0.89077657 0.98130828
-1.7179826 0.89562964 0.98351616
-1.6792983 0.89339525 0.98372573
0.025218787 0.85462028 0.98634851
2.0224411 0.87358266 0.98883265
2.0763836 0.88068229 0.97660506
2.1216779 0.853378 0.97446847
2.1632864 0.89384413 0.9636572
-7.2114706 0.91785687 0.96797842
-7.1814575 0.93948436 0.97266871
-7.1360183 0.94899178 0.96814597
-7.0592813 0.94795662 0.98817939
-6.9851494 0.94771624 0.99140501
-6.9167938 0.94144595 0.97877377
-6.5038943 0.90773118 0.97037947
-6.4582367 0.91396379 0.97200084
-6.4009013 0.91556907 0.97462869
-6.3592582 0.92667234 0.97553861
-6.3003011 0.93051261 0.96318012
-6.2729344 0.94122952 0.98322082
-2.776057 0.90948212 0.96864742
-2.7235618 0.91373271 0.97216779
-2.6771724 0.92081493 0.97217834
-2.6340802 0.93326241 0.9729414
-2.5576625 0.93973655 0.97049177
-2.5214279 0.92774135 0.97995114
-2.4772348 0.9244408 0.9751817
-2.4263985 0.92504168 0.97419798
-2.3754401 0.93623 0.9734872
-2.3364065 0.9461689 0.97501248
-2.2673781 0.94685119 0.97510225
-2.2263596 0.9451887 0.9763239
-2.1760592 0.94646984 0.97337341
-2.1402047 0.9466663 0.9832412
-2.0930281 0.94912332 0.99346048
-1.9531327 0.94243264 0.97132123
-1.9245466 0.9301427 0.97580796
-1.87525 0.91621113 0.9746722
-1.8257558 0.91140437 0.96172005
-1.7682236 0.90146893 0.9612661
-1.7299072 0.90491199 0.96386224
-1.6665769 0.91226685 0.96453166
-1.6216303 0.9109993 0.97782612
-1.5771565 0.91476345 0.98066658
-1.5252857 0.9217509 0.97659326
-1.4809163 0.92161232 0.97370595
-1.4221323 0.92764628 0.97769129
-1.376695 0.92553765 0.98055607
-1.3252199 0.93663889 0.97646677
2.0372639 0.92687756 0.99010944
2.0683403 0.92996502 0.97832662
2.1526537 0.94621277 0.968642
-7.0826192 0.95212883 0.95371175
-7.0237322 0.95666772 0.95603061
-6.190279 0.95449674 0.98095673
-2.5696602 0.961492 0.97508162
-2.5438621 0.97492307 0.97177386
-2.3133037 0.96003044 0.97751248
-2.28936 0.95580757 0.97173792
-2.1200294 0.95494562 0.97173697
-2.0660522 0.96349329 0.97110057
-2.0287023 0.97935617 0.9794367
-1.322076 0.96977961 0.97317576
2.0250027 0.97480637 0.99125171
2.0808485 0.97938746 0.98461169
2.1081877 0.97279108 0.98103023
2.1966815 0.97778928 0.95951045
-1.3114313 1.0451878 0.97458488
-1.2798758 1.0335617 0.9774223
0.077198423 1.0173304 0.9838779
0.1035497 1.0111461 0.99836791
1.9940499 1.0350726 0.99172425
2.0333827 1.0233762 0.98833692
2.1280067 1.0323153 0.95528138
2.1657064 1.026829 0.96713871
-1.3145183 1.076748 0.97593445
1.9989172 1.0770888 0.99743062
2.009933 1.0610392 0.9927991
2.0640416 1.0634602 0.98183542
2.1715255 1.0935466 0.96901006
-1.3140243 1.1238711 0.97752529
1.997012 1.1152298 0.9909296
2.0224359 1.126652 0.99417412
2.0628712 1.1439673 0.96782333
2.1136255 1.115328 0.98326427
-1.3239465 1.1781068 0.97277659
-1.2905256 1.1990376 0.96448076
-1.1104518 1.198609 0.98705798
-0.29153341 1.1987575 0.99478531
1.9583259 1.159531 0.99936092
2.0742576 1.1648805 0.99131441
3.4880581 1.1890247 0.98107433
-1.3073498 1.2057129 0.97804904
-1.2763685 1.2063752 0.97113138
-1.2275292 1.2098205 0.97233027
-1.1714131 1.2095556 0.97549576
-1.1205974 1.2101978 0.97729594
-1.0709949 1.2195494 0.97884613
-1.0311896 1.2188306 0.97560281
-0.97691029 1.2243506 0.97086364
-0.92952931 1.2279298 0.97280329
-0.8683961 1.2382097 0.97050875
-0.82997715 1.236979 0.97779071
-0.77090555 1.2421837 0.97675681
-0.72681063 1.2419536 0.97871143
-0.67620671 1.2395672 0.97656775
-0.61792338 1.2446628 0.97527003
-0.57540339 1.2461715 0.97199017
-0.52932566 1.2476537 0.96804285
-0.47038105 1.247273 0.97608209
-0.37964982 1.2493259 0.99341333
-0.31905171 1.23446 0.97658163
0.17737155 1.2436783 0.96680051
1.1452883 1.2395637 0.97152364
1.1689894 1.2142035 0.97667831
1.5441414 1.2375851 0.97284907
1.5636659 1.2396132 0.97957438
1.9752624 1.2035884 0.99083924
2.0099795 1.2232381 0.99242651
2.057241 1.2350054 0.98044854
2.1445708 1.2309802 0.97572124
2.1982126 1.2024539 0.96264237
3.4337564 1.2314463 0.96475959
3.4749656 1.2154858 0.96989238
3.7272563 1.2076086 0.97426927
3.7773049 1.2188669 0.97558755
3.8225448 1.2283195 0.97756642
3.8707266 1.2234604 0.97726423
3.9263775 1.2253429 0.97706133
3.9769957 1.2341959 0.97390813
4.0193911 1.2338428 0.97209716
4.0627952 1.2433316 0.97345066
-0.76384902 1.2532992 0.95616782
-0.69255096 1.2521535 0.99493456
-0.62335879 1.252341 0.99734771
-0.56121802 1.2515895 0.97906363
-0.52185428 1.2541755 0.97628623
-0.47019979 1.2551805 0.97288507
-0.42232716 1.2568583 0.97270846
-0.37571892 1.2589254 0.97295445
-0.34566373 1.2536478 0.97674423
0.19005005 1.275936 0.9633317
0.23171486 1.2877531 0.97266525
0.27163529 1.2899165 0.98050433
0.32636547 1.2875659 0.98518729
0.36386901 1.2934278 0.97975856
1.1481032 1.275003 0.96419495
1.1539491 1.2816807 0.98935008
1.2088065 1.2656826 0.97554433
1.5486898 1.2541959 0.97341692
1.5736073 1.2683426 0.97150379
1.6157383 1.2829319 0.97526306
1.7630795 1.2862716 0.97531468
1.9790577 1.2750736 0.99247605
2.0319903 1.2508525 0.97935915
4.0934911 1.2500789 0.99168217
4.1168208 1.2626631 0.96786076
4.1794481 1.2874892 0.97163284
0.24185118 1.3029108 0.96494758
0.2750352 1.3038681 0.95635903
0.32524416 1.3040223 0.96132278
0.37915093 1.3049256 0.9686532
0.43052712 1.3067657 0.97455299
0.46833587 1.3091953 0.97718728
0.52343982 1.3111573 0.97704583
0.58131886 1.3089019 0.97635138
0.61884528 1.3127491 0.97469038
0.67491543 1.3200166 0.97248256
0.72312438 1.3253943 0.97546673
0.77735895 1.3295904 0.9790408
0.82639766 1.3284035 0.97777843
0.87326372 1.3284309 0.97626287
0.923482 1.3306493 0.97417361
0.97717947 1.3336344 0.97168916
1.0163873 1.3406831 0.97606266
1.0674787 1.3385278 0.97969836
1.1256772 1.333187 0.97851044
1.165387 1.3409888 0.97594345
1.2384667 1.3147253 0.97082227
1.2756219 1.3463701 0.97903997
1.3120661 1.3491129 0.97370434
1.5759035 1.3195072 0.97427762
1.64239 1.3125846 0.97055447
1.675266 1.3465757 0.98979163
1.7638159 1.3233842 0.97743589
1.8248994 1.3158484 0.97345227
1.8539078 1.3483062 0.97303528
1.9625198 1.3353676 0.99278301
2.0185051 1.3323849 0.97340804
2.0725269 1.3166267 0.97439271
2.1024754 1.3444197 0.98840743
2.1841028 1.3397737 0.96965438
2.2169437 1.3280599 0.96222329
2.2618656 1.3388547 0.95011359
2.3813934 1.3469491 0.96419156
2.4040182 1.3390664 0.96792644
4.232739 1.3067081 0.97695446
4.2637324 1.3237578 0.95145911
4.3170485 1.3448662 0.98941886
1.0470333 1.3541217 0.9587068
1.1809791 1.3533335 0.9743638
1.2790802 1.3546331 0.97795486
1.3294903 1.3566077 0.97796071
1.3617628 1.3658309 0.97479951
1.4264148 1.3618743 0.97334605
1.471572 1.3675218 0.97590911
1.5322094 1.371338 0.97564799
1.5775368 1.3741502 0.97779763
1.6949009 1.3654246 0.97517693
1.7268858 1.3764037 0.97497755
1.7632452 1.3680904 0.97647524
1.882251 1.3819853 0.97274935
