# .PCD v0.7 - Point Cloud Data file format
VERSION 0.7
FIELDS x y z intensity
SIZE 4 4 4 4
TYPE F F F F
COUNT 1 1 1 1
WIDTH 1185
HEIGHT 1
VIEWPOINT 0 0 0 1 0 0 0
POINTS 1185
DATA ascii
-1.8999556 -0.042573635 0.47473356 1800307
-1.893957 -0.045083743 0.4897185 1800308
-1.8886756 -0.047177147 0.50422502 1800309
-1.8919947 -0.044158537 0.51427788 1800310
-1.895276 -0.041162539 0.52434999 1800311
-1.8945667 -0.040546779 0.53639442 1800312
5.0066161 -4.4172463 1.0159506 1800425
4.997838 -4.4138322 0.99110931 1800426
5.0064993 -4.4217558 0.96435529 1800427
5.0017085 -4.4209342 0.93907112 1800428
1.9625067 -2.4886353 0.78254014 1800478
-1.9035354 -0.041522663 0.46091715 1801023
-1.9070113 -0.038397618 0.47103822 1801024
-1.9080931 -0.036695544 0.48239917 1801025
-1.9083421 -0.035491336 0.49415866 1801026
-1.916422 -0.029627727 0.50191921 1801027
-1.9189545 -0.027065136 0.5125097 1801028
-1.915912 -0.027828598 0.52584606 1801029
-1.9199371 -0.024379371 0.53565735 1801030
-1.9223405 -0.021898272 0.54626065 1801031
4.9835014 -4.4133983 0.96693522 1801144
4.9803934 -4.4136577 0.94155711 1801145
1.9186317 -2.4548368 0.87412113 1801188
1.9214121 -2.4576473 0.86256629 1801189
1.9241407 -2.4604285 0.85096556 1801190
1.9268173 -2.4631805 0.83931929 1801191
1.9302324 -2.4664371 0.8273291 1801192
1.9233271 -2.4627256 0.81922317 1801193
1.9077281 -2.4531305 0.81454927 1801194
1.9094508 -2.455246 0.80317581 1801195
1.8930519 -2.4450917 0.79901803 1801196
1.895489 -2.4476922 0.78734833 1801197
1.899439 -2.4513247 0.77498776 1801198
1.8955138 -2.4496179 0.76584381 1801199
-1.960983 -0.0024878273 0.45416197 1801735
-1.9534619 -0.0058879438 0.47022301 1801736
-1.9639769 0.0014636449 0.47702193 1801737
-1.9673771 0.004573164 0.48746499 1801738
-1.977059 0.011437904 0.49480179 1801739
-1.9740597 0.010721793 0.50840998 1801740
-1.9773419 0.013760737 0.51891142 1801741
-1.979791 0.016300412 0.52981067 1801742
-1.9798126 0.017383063 0.54184473 1801743
-1.9885442 0.023691827 0.54978818 1801744
-1.9948605 0.028555015 0.55890644 1801745
-2.0632868 0.072970703 0.56459093 1801748
1.9466283 -2.4768682 0.87451184 1801897
1.9478185 -2.4786217 0.86339617 1801898
1.9568996 -2.4857135 0.84938985 1801899
1.9484711 -2.4809728 0.84165817 1801900
1.9463558 -2.4805005 0.83164173 1801901
1.9442027 -2.4800031 0.8216303 1801902
1.935701 -2.4752021 0.81404591 1801903
1.9445084 -2.4821405 0.79978096 1801904
1.9304408 -2.4735575 0.7944259 1801905
1.9328582 -2.4761662 0.78258169 1801906
1.929737 -2.4750135 0.77292889 1801907
-2.0196788 0.04037552 0.45993388 1802446
-2.0152318 0.038812909 0.47458062 1802447
-2.0178347 0.04147521 0.48568556 1802448
-2.0164354 0.041731611 0.49871638 1802449
-2.0141878 0.041472822 0.51209718 1802450
-2.0150599 0.043086447 0.52394176 1802451
-2.0190666 0.046586357 0.53429818 1802452
-2.019052 0.047662087 0.54651487 1802453
-2.0189879 0.048704524 0.55871773 1802454
-2.0468397 0.066607267 0.55835569 1802455
-2.1291337 0.11745033 0.53415555 1802456
-2.2084062 0.1665453 0.51218128 1802457
1.956614 -2.4879811 0.87065428 1802605
1.9585792 -2.4902692 0.8591944 1802606
1.9509783 -2.4860733 0.85112923 1802607
1.9481074 -2.4850836 0.84138566 1802608
1.9499443 -2.4872921 0.829889 1802609
1.9485739 -2.4873247 0.81954962 1802610
1.9518912 -2.4905488 0.80739099 1802611
1.9551526 -2.4937413 0.79517961 1802612
1.9512894 -2.4920855 0.78571421 1802613
1.9434729 -2.4877326 0.77784634 1802614
-2.0253117 0.048559327 0.45567486 1803164
-2.0303442 0.052699644 0.46567053 1803165
-2.0171773 0.045872033 0.48460254 1803166
-2.0221097 0.049945887 0.494578 1803167
-2.0222538 0.051130202 0.50686258 1803168
-2.0231411 0.052760463 0.51875937 1803169
-2.008882 0.045227651 0.53769761 1803170
-2.0112433 0.047737464 0.54877335 1803171
-2.0183442 0.053118002 0.55768281 1803172
-2.0349944 0.06429287 0.56234664 1803173
-2.117188 0.11525698 0.53808492 1803174
1.9400328 -2.4836466 0.87584764 1803323
1.9436005 -2.4870274 0.86389595 1803324
1.9407808 -2.486058 0.85417652 1803325
1.9387164 -2.4856043 0.84417975 1803326
1.9350358 -2.4840474 0.83477592 1803327
1.9328989 -2.4835448 0.82479674 1803328
1.9338708 -2.4851701 0.81361282 1803329
1.9347951 -2.4867671 0.80240071 1803330
1.9341036 -2.4872608 0.79178244 1803331
1.9333688 -2.4877276 0.78115326 1803332
-2.0137935 0.049336523 0.4591234 1803877
-2.015656 0.05157055 0.47064251 1803878
-2.0143197 0.051863208 0.48371431 1803879
-2.0113487 0.051158968 0.49752399 1803880
-2.0122721 0.052813698 0.50939322 1803881
-2.0139403 0.054918718 0.52088243 1803882
-2.0060441 0.05120258 0.53682733 1803883
-2.0060189 0.05226827 0.54900765 1803884
-2.0123096 0.05718017 0.55827028 1803885
-2.0209599 0.063534617 0.56650692 1803886
-2.1061912 0.11664736 0.54075283 1803887
-2.1388743 0.1377364 0.53900671 1803888
-2.1619952 0.15300806 0.54174107 1803889
1.9257098 -2.4810123 0.88017529 1804036
1.9213735 -2.4789834 0.87109751 1804037
1.9185876 -2.4780164 0.86147755 1804038
1.9133998 -2.4754004 0.85273951 1804039
1.9160628 -2.4781756 0.84109956 1804040
1.9226069 -2.4836252 0.82792377 1804041
1.9212327 -2.4836361 0.81768417 1804042
1.9206028 -2.4841616 0.80713493 1804043
1.9121035 -2.4792664 0.79967982 1804044
1.9176528 -2.4840541 0.78663212 1804045
1.9215783 -2.48773 0.77414525 1804046
-2.0194843 0.060760099 0.45387167 1804595
-2.0197875 0.062055483 0.46622103 1804596
-2.0168922 0.061395921 0.48010796 1804597
-2.0139368 0.060693052 0.49395043 1804598
-2.0132895 0.061394539 0.50661027 1804599
-2.0102177 0.060608801 0.52037495 1804600
-2.013422 0.063658863 0.53112423 1804601
-2.010241 0.062796518 0.54482996 1804602
-2.0125611 0.065301105 0.55594748 1804603
-2.0212023 0.071684591 0.56420231 1804604
-2.0497332 0.09029156 0.56365609 1804605
-2.1437068 0.14915763 0.53460836 1804606
1.9044349 -2.4733739 0.87654591 1804755
1.9087764 -2.4773033 0.86443126 1804756
1.9043957 -2.4752228 0.85543996 1804757
1.9023449 -2.4747498 0.84559667 1804758
1.9104673 -2.4813056 0.8318845 1804759
1.9083264 -2.480777 0.82199639 1804760
1.9061484 -2.4802237 0.81211346 1804761
1.9047151 -2.4801867 0.8019253 1804762
1.9032421 -2.480124 0.79173416 1804763
1.9079604 -2.4843569 0.77899128 1804764
-2.0173516 0.067397222 0.46539259 1805313
-2.0160334 0.067696184 0.47850901 1805314
-2.0138731 0.06747321 0.49198067 1805315
-2.0124438 0.067693569 0.50503623 1805316
-2.0109594 0.067875274 0.51806277 1805317
-2.0117924 0.069478437 0.52994579 1805318
-2.0173297 0.073976696 0.53961909 1805319
-2.0141103 0.07307905 0.55333203 1805320
-2.0211568 0.078508921 0.56232798 1805321
1.9058852 -2.4798937 0.87546682 1805472
1.903123 -2.4789197 0.86590004 1805473
1.9042606 -2.480648 0.85489815 1805474
1.895139 -2.4752667 0.84768486 1805475
1.8993362 -2.4791212 0.83548808 1805476
1.9026935 -2.4823997 0.82353163 1805477
1.9013054 -2.4823868 0.81335866 1805478
1.8959758 -2.4796343 0.80473381 1805479
1.8945153 -2.4795723 0.79457551 1805480
1.8945708 -2.4805682 0.78377748 1805481
-2.0214772 0.076180875 0.46147341 1806028
-2.0193877 0.076004125 0.47501385 1806029
-2.0251 0.080634125 0.48468158 1806030
-2.0181844 0.077470526 0.50046706 1806031
-2.0159271 0.077174641 0.51391387 1806032
-2.01914 0.080255844 0.52472234 1806033
-2.0191493 0.081354372 0.53701991 1806034
-2.0159411 0.080456659 0.55075759 1806035
-2.0182261 0.082957849 0.56193316 1806036
1.8971348 -2.4792671 0.87807614 1806187
1.9006814 -2.4826686 0.86626083 1806188
1.8947461 -2.4794784 0.85786325 1806189
1.8895706 -2.4768138 0.84921807 1806190
1.8937671 -2.4806788 0.83703882 1806191
1.8994706 -2.4856024 0.82419419 1806192
1.8965247 -2.4844975 0.81463706 1806193
1.8935442 -2.4833686 0.80509329 1806194
1.8905296 -2.4822159 0.79556322 1806195
1.8913647 -2.4837565 0.78445506 1806196
1.8913767 -2.484725 0.77364224 1806197
-2.0169654 0.079602286 0.46186024 1806745
-2.0195785 0.082330599 0.47306609 1806746
-2.022933 0.085517861 0.48390013 1806747
-2.0215311 0.085754536 0.49703258 1806748
-2.0208611 0.086440906 0.5097605 1806749
-2.023293 0.089050405 0.52098036 1806750
-2.0217338 0.089177191 0.53404969 1806751
-2.0240746 0.091726393 0.54527098 1806752
-2.0176601 0.088821366 0.56045812 1806753
1.8963459 -2.4840238 0.86743057 1806905
1.8927752 -2.4824691 0.85817695 1806906
1.8899562 -2.4814394 0.84865087 1806907
1.8894504 -2.4820271 0.83824497 1806908
1.8951514 -2.4869616 0.82541376 1806909
1.8992307 -2.4907694 0.81311613 1806910
1.8900177 -2.4852669 0.80602682 1806911
1.887009 -2.4841104 0.7965045 1806912
1.8855181 -2.4840193 0.78635943 1806913
1.8816642 -2.4822698 0.77717894 1806914
-2.0177515 0.085033104 0.45997751 1807461
-2.0195837 0.087284163 0.47158685 1807462
-2.0182345 0.087554336 0.48473591 1807463
-2.0176153 0.088274144 0.49747664 1807464
-2.0193033 0.090427637 0.50906885 1807465
-2.0177956 0.09058632 0.52215165 1807466
-2.0201776 0.093168229 0.53336591 1807467
-2.0225167 0.0957224 0.54459101 1807468
-2.0097814 0.08885105 0.56266075 1807469
1.8802413 -2.4770858 0.87282199 1807621
1.8766961 -2.475533 0.86364287 1807622
1.8754681 -2.4756045 0.85360473 1807623
1.8796717 -2.4794898 0.84148085 1807624
1.8916211 -2.4888225 0.82627934 1807625
1.8847928 -2.4849727 0.81827062 1807626
1.8802766 -2.4827449 0.80938709 1807627
1.8772842 -2.4815886 0.79990566 1807628
1.8781333 -2.4831381 0.78884733 1807629
1.8781614 -2.4841132 0.77808398 1807630
-2.0271406 0.095811762 0.45378739 1808180
-2.0297718 0.098571591 0.46506849 1808181
-2.0213952 0.09445709 0.48173833 1808182
-2.0223541 0.096164584 0.49374723 1808183
-2.0185518 0.094891526 0.50800747 1808184
-2.0272765 0.10145307 0.51626307 1808185
-2.0249457 0.10109378 0.52974516 1808186
-2.0225582 0.10069332 0.54318947 1808187
-2.0232751 0.10223541 0.55515641 1808188
1.8707021 -2.4759872 0.8654229 1808341
1.8718269 -2.4777098 0.8545261 1808342
1.8736863 -2.4799538 0.84330308 1808343
1.8786139 -2.4843659 0.83083731 1808344
1.8764803 -2.4838047 0.82105196 1808345
1.8750867 -2.4837666 0.8109619 1808346
1.8744295 -2.4842505 0.80055493 1808347
1.8714083 -2.4830654 0.79109079 1808348
1.8729903 -2.4851377 0.77970797 1808349
-2.0252934 0.10011315 0.4530437 1808895
-2.0326083 0.10581456 0.46199924 1808896
-2.028162 0.10414582 0.4767777 1808897
-2.0252173 0.10341123 0.49073541 1808898
-2.0245669 0.10411105 0.50351995 1808899
-2.0277934 0.10724349 0.51442301 1808900
-2.0215349 0.10440931 0.52976203 1808901
-2.0215135 0.1054922 0.54211062 1808902
-2.0246 0.10853019 0.5530057 1808903
1.8737214 -2.4835198 0.86373067 1809056
1.8693709 -2.4813776 0.85485578 1809057
1.8735663 -2.48528 0.84274167 1809058
1.8831527 -2.4930072 0.8284567 1809059
1.8872261 -2.496841 0.81619012 1809060
1.8803829 -2.4929414 0.80819649 1809061
1.8735191 -2.489023 0.80025762 1809062
1.8743644 -2.4905753 0.78919554 1809063
1.8736196 -2.4910016 0.77875006 1809064
-2.0249598 0.10727216 0.46393648 1809610
-2.0244176 0.10804729 0.47677013 1809611
-2.0261703 0.11026495 0.48844251 1809612
-2.0325787 0.11541875 0.49786085 1809613
-2.0232613 0.11064506 0.51477569 1809614
-2.019367 0.10928574 0.52900308 1809615
-2.020134 0.11086767 0.54099172 1809616
-2.0224304 0.11341525 0.55225432 1809617
1.8771319 -2.4904313 0.87225097 1809769
1.8728144 -2.4883008 0.86333787 1809770
1.8700273 -2.4872556 0.85386813 1809771
1.871098 -2.4889517 0.84292608 1809772
1.8752311 -2.4928296 0.8307507 1809773
1.876204 -2.4944658 0.81973505 1809774
1.874807 -2.4944186 0.80961955 1809775
1.8749171 -2.4954472 0.7988739 1809776
1.8718952 -2.4942453 0.78937984 1809777
1.8696103 -2.4935694 0.77957779 1809778
-2.0266054 0.11471678 0.46121517 1810327
-2.0338719 0.12043425 0.47022864 1810328
-2.0317349 0.1201992 0.48386732 1810329
-2.0311058 0.12091425 0.49671647 1810330
-2.0288565 0.12059733 0.51028973 1810331
-2.0304749 0.12273066 0.52198386 1810332
-2.0234017 0.11933865 0.53768796 1810333
-2.0170455 0.116392 0.5529452 1810334
1.8735275 -2.5008457 0.87220055 1810486
1.8715556 -2.5003664 0.86240798 1810487
1.8679934 -2.4987473 0.85320461 1810488
1.8651756 -2.4976618 0.84372556 1810489
1.8661969 -2.4993343 0.83275527 1810490
1.8725845 -2.504869 0.8196218 1810491
1.8665563 -2.5014808 0.81134802 1810492
1.8612753 -2.4986272 0.80280757 1810493
1.862893 -2.500742 0.79144919 1810494
1.8659972 -2.5039339 0.77941221 1810495
-2.0272772 0.13009316 0.45640042 1811035
-2.0259802 0.13038553 0.46968335 1811036
-2.0269642 0.13213381 0.48179585 1811037
-2.0271204 0.13334915 0.4942807 1811038
-2.0248837 0.13302608 0.50787091 1811039
-2.0210254 0.13165617 0.52216136 1811040
-2.0202396 0.13225317 0.53493947 1811041
-2.019402 0.13281292 0.54769582 1811042
1.8648075 -2.5084424 0.87383401 1811194
1.8636216 -2.5085158 0.86376506 1811195
1.8623973 -2.508563 0.85369194 1811196
1.8634536 -2.510267 0.84272575 1811197
1.8629202 -2.5108206 0.83233196 1811198
1.8600342 -2.5096672 0.82284021 1811199
1.8563455 -2.5079296 0.81367046 1811200
1.8526256 -2.5061686 0.80452251 1811201
1.8611411 -2.5133188 0.79032397 1811202
1.863461 -2.5159655 0.77858478 1811203
-2.0204029 0.14172687 0.45502692 1811745
-2.0198865 0.14251499 0.4679293 1811746
-2.0231969 0.14577903 0.47890607 1811747
-2.0194733 0.14448078 0.49329647 1811748
-2.021914 0.14717662 0.50464946 1811749
-2.0172975 0.14528701 0.51933485 1811750
-2.018862 0.14740787 0.53103858 1811751
-2.0203815 0.14949802 0.54274505 1811752
1.8659588 -2.5203009 0.87222451 1811904
1.8655403 -2.5209308 0.86183399 1811905
1.8612205 -2.5187099 0.85289037 1811906
1.8607261 -2.5192873 0.84249598 1811907
1.8678858 -2.5254741 0.82908756 1811908
1.8649919 -2.5243018 0.81954086 1811909
1.8658991 -2.5259178 0.80846506 1811910
1.8629316 -2.5246935 0.79892451 1811911
1.8706321 -2.5313067 0.78496331 1811912
-2.0204079 0.15455179 0.45112321 1812462
-2.0214479 0.15635706 0.46328697 1812463
-2.0239871 0.15914065 0.47468412 1812464
-2.0164111 0.15530153 0.49099901 1812465
-2.0157456 0.15597858 0.50386059 1812466
-2.0150285 0.15661766 0.5167011 1812467
-2.0173726 0.15926154 0.5280593 1812468
-2.0212328 0.16290042 0.53870583 1812469
1.8813404 -2.5350356 0.87672931 1812620
1.8809367 -2.5356822 0.86625957 1812621
1.8835815 -2.5385668 0.85462689 1812622
1.8807777 -2.5374584 0.84499085 1812623
1.8764001 -2.5351942 0.83595943 1812624
1.8773739 -2.5368614 0.82485729 1812625
1.8729298 -2.534548 0.81585628 1812626
1.869989 -2.5333393 0.80626863 1812627
1.8708385 -2.5349226 0.7951321 1812628
1.8701146 -2.5353503 0.78460127 1812629
-2.0228777 0.16236459 0.46105027 1813173
-2.0223293 0.16312934 0.47399309 1813174
-2.0201807 0.1628384 0.48767078 1813175
-2.0141001 0.15995632 0.50317889 1813176
-2.0180418 0.16366024 0.51380706 1813177
-2.0188365 0.16529216 0.52592397 1813178
-2.0258121 0.17099597 0.53514487 1813179
1.8712139 -2.5328734 0.86940998 1813331
1.8653817 -2.5295229 0.86098164 1813332
1.857985 -2.5250173 0.85318244 1813333
1.8551834 -2.5238929 0.84367108 1813334
1.8677038 -2.5340674 0.82817364 1813335
1.8586781 -2.528358 0.82103807 1813336
1.8542305 -2.5260229 0.81213266 1813337
1.861214 -2.5321345 0.79857177 1813338
1.8490639 -2.5241058 0.79282963 1813339
1.8513771 -2.526772 0.78110856 1813340
-2.022794 0.16726437 0.4595854 1813889
-2.0207062 0.16701496 0.47330374 1813890
-2.0286107 0.17334872 0.48207653 1813891
-2.0233274 0.17098451 0.49726856 1813892
-2.0156519 0.16703142 0.51349986 1813893
-2.014116 0.16712509 0.52671319 1813894
-2.0210805 0.17283686 0.53592074 1813895
1.8599724 -2.5321887 0.87271076 1814047
1.8410754 -2.5191395 0.86920631 1814048
1.8383383 -2.5180421 0.85976899 1814049
1.8363353 -2.517489 0.85004872 1814050
1.8511542 -2.5294139 0.83373833 1814051
1.8482878 -2.5282307 0.82423973 1814052
1.8331683 -2.5179455 0.81968307 1814053
1.8470296 -2.5291903 0.80340946 1814054
1.8379663 -2.5233998 0.79645681 1814055
1.8349692 -2.5221186 0.78702056 1814056
1.8372487 -2.5247684 0.77532643 1814057
-2.0239499 0.17681505 0.45635 1814603
-2.0272667 0.18014322 0.46742404 1814604
-2.0320864 0.18446854 0.4777624 1814605
-2.0229619 0.17953587 0.49486503 1814606
-2.0191767 0.17813858 0.50926977 1814607
-2.0223053 0.18133222 0.52032965 1814608
-2.0160801 0.17829993 0.53574848 1814609
1.837839 -2.5253465 0.86946857 1814762
1.8328061 -2.5225246 0.86089993 1814763
1.8438278 -2.5316792 0.84616607 1814764
1.8387176 -2.5288031 0.83758539 1814765
1.835108 -2.527046 0.82843524 1814766
1.8581372 -2.5452073 0.80853325 1814767
1.84149 -2.5337071 0.80458456 1814768
1.8438414 -2.5364187 0.79289627 1814769
1.839318 -2.5339844 0.78404593 1814770
-2.0244837 0.18721934 0.45303801 1815322
-2.0224216 0.18697456 0.46681368 1815323
-2.0249209 0.18977246 0.47828475 1815324
-2.0250649 0.19099413 0.4908897 1815325
-2.0236146 0.19114561 0.50422198 1815326
-2.0190179 0.18918443 0.51898885 1815327
-2.0151324 0.18769187 0.53333187 1815328
1.8343291 -2.5318937 0.8593933 1815482
1.8216326 -2.5232942 0.85378307 1815483
1.8188517 -2.5221345 0.84440273 1815484
1.8434542 -2.5415659 0.82411116 1815485
1.8299183 -2.5323281 0.81891382 1815486
1.8247339 -2.5293679 0.81041676 1815487
1.8195244 -2.5263863 0.80195808 1815488
-2.0229104 0.19577637 0.45091182 1816034
-2.0254591 0.19862379 0.46241033 1816035
-2.015676 0.19317353 0.47997326 1816036
-2.0119665 0.19179885 0.49442524 1816037
-2.014359 0.19452897 0.50586241 1816038
-2.0136228 0.1951483 0.51877552 1816039
-2.0174708 0.19885769 0.52949446 1816040
1.9222425 -2.6033916 0.84711921 1816192
1.8429176 -2.5445652 0.86584276 1816193
1.8292687 -2.5370741 0.83944362 1816196
1.8426474 -2.55003 0.80211997 1816199
-2.0188494 0.20141435 0.45040825 1816741
-2.0198624 0.20323348 0.46267101 1816742
-2.0208278 0.20501792 0.4749299 1816743
-2.0140684 0.20156787 0.49092883 1816744
-2.011852 0.20118681 0.50462008 1816745
-2.0126598 0.20285134 0.51680875 1816746
-2.0141914 0.20500496 0.5286299 1816747
4.404572 -4.3976598 0.9887318 1816856
-2.0170472 0.2087172 0.4487448 1817453
-2.0195894 0.21158203 0.4602541 1817454
-2.0121431 0.20764564 0.47669789 1817455
-2.0153511 0.21095718 0.48780426 1817456
-2.0162165 0.21267143 0.50004202 1817457
-2.0162666 0.21382681 0.51264149 1817458
-2.0093405 0.21021464 0.52849013 1817459
4.3852081 -4.3915124 0.96755713 1817569
4.3886309 -4.3961339 0.94350904 1817570
-2.0087852 0.20597696 0.45205405 1818168
-2.0052083 0.20467021 0.46658888 1818169
-2.0099797 0.2090515 0.47690558 1818170
-2.0131843 0.21236475 0.48800769 1818171
-2.0178823 0.21669847 0.4983882 1818172
-2.0194731 0.21890897 0.5102706 1818173
-2.0164039 0.2179291 0.52433139 1818174
4.3875694 -4.393342 0.9674291 1818284
4.3837914 -4.3926506 0.9443354 1818285
4.3807321 -4.3924894 0.92114955 1818286
-2.004972 0.20336072 0.45397845 1818880
-2.0113125 0.20881294 0.46351752 1818881
-2.0061545 0.20642413 0.47878966 1818882
-2.0032277 0.20554972 0.49286902 1818883
-2.0102112 0.21144027 0.50208491 1818884
-2.0163984 0.2167902 0.51172709 1818885
-2.0171704 0.21843782 0.52395886 1818886
4.3609476 -4.3775187 0.97084838 1818996
4.3627849 -4.3809614 0.94713664 1818997
4.3677306 -4.3867078 0.92293704 1818998
-2.0132327 0.21081649 0.44922888 1819593
-2.0089023 0.20899592 0.46417484 1819594
-2.0083294 0.20973369 0.47716671 1819595
-2.0092351 0.21147835 0.48938864 1819596
-2.0131602 0.21528627 0.5001232 1819597
-2.0162797 0.21854335 0.51125193 1819598
-2.0224342 0.22387996 0.52094948 1819599
4.3394918 -4.403327 0.97325683 1819709
4.3301802 -4.3984375 0.95105267 1819710
4.3271589 -4.3982549 0.92803794 1819711
-2.0129013 0.23183043 0.45611453 1820309
-2.0085483 0.22995156 0.47107497 1820310
-2.0079417 0.23066118 0.48409909 1820311
-2.013387 0.23556504 0.4941338 1820312
-2.0149784 0.23779592 0.50604773 1820313
-2.0180554 0.24105744 0.51723862 1820314
4.3064265 -4.421051 0.97723711 1820424
4.3027129 -4.4203086 0.95435107 1820425
4.2997108 -4.4201069 0.93137354 1820426
-2.0119846 0.25180089 0.45032105 1821016
-2.0114517 0.2525672 0.46343428 1821017
-2.0139003 0.25542536 0.475025 1821018
-2.007194 0.25184217 0.49108601 1821019
-2.0049813 0.25141212 0.50485665 1821020
4.2792239 -4.4274683 0.9805733 1821131
4.287375 -4.4357762 0.9561699 1821132
4.278861 -4.4313321 0.93397838 1821133
-2.0132556 0.26712427 0.45848876 1821736
-2.0157089 0.27000552 0.47012302 1821737
-2.0060079 0.26425871 0.48771802 1821738
-2.0068424 0.26598191 0.50004673 1821739
-2.0061116 0.26659 0.51309788 1821740
4.2654471 -4.4308996 0.98234552 1821850
4.2641306 -4.431953 0.95925587 1821851
4.261157 -4.4317336 0.93638057 1821852
-2.0053177 0.26837778 0.46036252 1822450
-2.0092695 0.27233252 0.47122008 1822451
-2.015451 0.27787802 0.48098984 1822452
-2.009491 0.27476245 0.4966982 1822453
-2.0095282 0.27591994 0.50941813 1822454
4.2514129 -4.4345775 0.98409283 1822564
4.250103 -4.4356284 0.96104205 1822565
4.2550039 -4.4414802 0.93710226 1822566
-2.017828 0.28557849 0.4647913 1823169
-2.0187356 0.28737295 0.47722906 1823170
-2.0143068 0.28533858 0.49223894 1823171
-2.0105724 0.2837944 0.50682354 1823172
4.2291818 -4.4276915 0.98699814 1823282
4.2357459 -4.4348311 0.96298409 1823283
4.232007 -4.4339929 0.94030875 1823284
-2.0203326 0.29135737 0.44900289 1823879
-2.0235527 0.29482102 0.46034807 1823880
-2.0184429 0.29229647 0.47580785 1823881
-2.0155325 0.29134518 0.4900941 1823882
-2.0163429 0.29306647 0.50251466 1823883
4.2172408 -4.4285736 0.98844057 1823993
4.2206626 -4.4332833 0.96488929 1823994
4.2114429 -4.4281683 0.94304007 1823995
-2.020833 0.29679671 0.44719309 1824594
-2.0233023 0.29972842 0.4589304 1824595
-2.0287399 0.30480045 0.46919042 1824596
-2.0258517 0.30386508 0.48354581 1824597
-2.0191307 0.30015445 0.49967739 1824598
4.1953955 -4.4090281 0.96827376 1824709
4.1956105 -4.4112363 0.94525534 1824710
-2.0357254 0.30636173 0.45342278 1825313
-2.0276265 0.30168477 0.47044465 1825314
-2.0285044 0.30346552 0.48294663 1825315
-2.0270696 0.30357572 0.49653646 1825316
4.2011018 -4.3899512 0.96780807 1825427
4.2021089 -4.3927665 0.94470954 1825428
-2.0492344 0.30398265 0.45035073 1826029
-2.0449004 0.30204615 0.46555021 1826030
-2.040503 0.30005616 0.48068896 1826031
-2.0436175 0.30343387 0.49212712 1826032
4.2019124 -4.3657794 0.96793169 1826143
4.2013507 -4.367384 0.94511473 1826144
-2.0632222 0.30242026 0.46032891 1826744
-2.0595889 0.30100465 0.4751631 1826745
-2.0596924 0.30223417 0.48812592 1826746
-2.0661976 0.32302392 0.45328817 1827461
-2.0610864 0.32052359 0.46892527 1827462
-2.0536408 0.31633753 0.48558563 1827463
-2.0559714 0.31916764 0.49747172 1827464
-2.0479362 0.33312464 0.45530817 1828178
-2.0465991 0.33331493 0.46906897 1828179
-2.0429506 0.33181521 0.483895 1828180
-2.0444186 0.34981126 0.45125186 1828892
-2.0483322 0.35386533 0.46246281 1828893
-2.0417204 0.35015059 0.47881103 1828894
1.7958895 -2.6267102 0.82685888 1829051
1.7646356 -2.6038089 0.80787969 1829054
-2.0473976 0.36412591 0.45963377 1829609
-2.0445447 0.36317381 0.47418243 1829610
1.7977451 -2.632494 0.87819618 1829762
1.7936332 -2.6300395 0.86916727 1829763
1.7909702 -2.6287811 0.85959184 1829764
1.7890118 -2.6281054 0.84973711 1829765
1.7877549 -2.6280112 0.83959067 1829766
1.7849915 -2.6266711 0.83004105 1829767
1.7755953 -2.6198337 0.82324421 1829768
1.7757076 -2.6208746 0.81252426 1829769
1.7757781 -2.6218843 0.80178452 1829770
1.7787251 -2.6252863 0.78975832 1829771
-2.0434613 0.3721056 0.45828488 1830326
-2.0465801 0.37560868 0.46991965 1830327
1.7823502 -2.6319504 0.87209368 1830480
1.7797048 -2.6306856 0.86255062 1830481
1.7762928 -2.6287818 0.85331184 1830482
1.7757851 -2.6293001 0.84291077 1830483
1.7759706 -2.6303999 0.83219767 1830484
1.7783079 -2.6333008 0.82055205 1830485
1.7703779 -2.6276236 0.81317753 1830486
1.7828345 -2.6389959 0.79712701 1830487
-2.0440152 0.38627872 0.45381263 1831042
-2.046392 0.38924608 0.46585226 1831043
1.7848055 -2.6457376 0.86958784 1831196
1.7821565 -2.6444559 0.85999793 1831197
1.7809398 -2.6443784 0.84983784 1831198
1.7782243 -2.6430416 0.84026492 1831199
1.7740169 -2.6404486 0.83130449 1831200
1.7785261 -2.6451974 0.81872743 1831201
1.7800692 -2.6474538 0.80731279 1831202
1.7772087 -2.6460006 0.79773486 1831203
-2.0464947 0.40249795 0.44821581 1831757
-2.0473967 0.4043633 0.46103898 1831758
1.767213 -2.6477096 0.86368567 1831912
1.769658 -2.6507292 0.85211152 1831913
1.7611392 -2.6444273 0.84491956 1831914
1.7562399 -2.6412001 0.83631033 1831915
1.7636468 -2.648454 0.82257962 1831916
1.7644709 -2.6501079 0.81151485 1831917
1.7659742 -2.6523452 0.80011034 1831918
1.7566063 -2.6453078 0.79340851 1831919
-2.0359838 0.41397995 0.4475176 1832470
-2.0331955 0.41300893 0.46216774 1832471
1.7430788 -2.6589057 0.86882818 1832625
1.7339605 -2.6519139 0.86195117 1832626
1.7378098 -2.6561966 0.84986138 1832627
1.7488048 -2.666708 0.83472347 1832628
1.7460697 -2.6652737 0.82519323 1832629
1.7447379 -2.6650627 0.8150624 1832630
1.7433696 -2.6648216 0.80492848 1832631
1.7369608 -2.6601825 0.7969979 1832632
-2.0221245 0.44247884 0.4424203 1833181
-2.0230219 0.44436786 0.4552705 1833182
1.7286282 -2.6775508 0.87007135 1833336
1.7267479 -2.676816 0.8602854 1833337
1.7255486 -2.6766875 0.85021001 1833338
1.7221743 -2.6746254 0.84102434 1833339
1.7237552 -2.6769743 0.82974541 1833340
1.7203156 -2.6748552 0.82057345 1833341
1.7317485 -2.6859939 0.80490535 1833342
-2.0128179 0.47521076 0.44843823 1833897
1.7150527 -2.6669133 0.864972 1834052
1.7217288 -2.6737826 0.85173178 1834053
1.722639 -2.6755309 0.84077948 1834054
1.7149639 -2.6696374 0.83342332 1834055
1.7236209 -2.678293 0.81909543 1834056
1.7236944 -2.6793072 0.80837256 1834057
1.7102702 -2.6682804 0.80360538 1834058
-2.0118291 0.47495362 0.44877324 1834609
1.7167091 -2.6516547 0.86674386 1834764
1.7169687 -2.6528106 0.85618484 1834765
1.7229213 -2.6589782 0.84321886 1834766
1.7152207 -2.6531372 0.83591235 1834767
1.7217913 -2.6598608 0.82254529 1834768
1.7197429 -2.6589985 0.81281251 1834769
1.7126783 -2.6537127 0.80528897 1834770
1.709151 -2.6515439 0.79623359 1834771
-2.028945 0.46769038 0.44657147 1835319
1.6947806 -2.6211483 0.84673876 1835477
1.6920999 -2.6197314 0.83751601 1835478
1.6936854 -2.6220374 0.82644004 1835479
1.6830735 -2.6136971 0.82068545 1835480
1.6795945 -2.6115804 0.81184214 1835481
1.6768003 -2.6100619 0.80269718 1835482
1.6789532 -2.6128719 0.79127324 1835483
1.6746702 -2.6100528 0.7827903 1835484
-2.0401931 0.45861658 0.44642058 1836031
1.6904427 -2.6218925 0.84790599 1836189
1.6970814 -2.6286204 0.83470714 1836190
1.6943619 -2.627166 0.82545555 1836191
1.6851872 -2.6200564 0.8190527 1836192
1.6624646 -2.6010623 0.81880206 1836193
1.691712 -2.6276357 0.79519451 1836194
1.6924566 -2.6270659 0.85683835 1836908
1.6969806 -2.631953 0.84458101 1836909
1.6971577 -2.6330333 0.83409351 1836910
1.6908675 -2.6284368 0.82638305 1836911
1.6959659 -2.6338451 0.81368834 1836912
1.6995835 -2.6379602 0.80155426 1836913
1.7010164 -2.6401603 0.79032916 1836914
1.695725 -2.6350589 0.85465229 1837623
1.6930778 -2.6336505 0.84538645 1837624
1.6904002 -2.6322155 0.83613342 1837625
1.6941096 -2.6364105 0.82409728 1837626
1.6934956 -2.6367996 0.81388879 1837627
1.6921335 -2.6365306 0.80398786 1837628
1.6850613 -2.6312203 0.79666883 1837629
-2.0530298 0.48817378 0.44784862 1838182
1.6892945 -2.6352673 0.85642385 1838338
1.6866579 -2.6338565 0.84717828 1838339
1.6868429 -2.6349416 0.83671975 1838340
1.6855646 -2.6347349 0.82686228 1838341
1.6835406 -2.6338692 0.81731623 1838342
1.6878676 -2.6386335 0.80490577 1838343
1.6921396 -2.6433573 0.79242641 1838344
-2.0506597 0.49388039 0.44672343 1838896
1.676779 -2.6308053 0.85042638 1839053
1.6776874 -2.632529 0.83970308 1839054
1.6813959 -2.6367457 0.82770944 1839055
1.6850525 -2.6409235 0.81565458 1839056
1.6822839 -2.6393909 0.80640715 1839057
1.6808989 -2.6390908 0.79652762 1839058
-2.0519147 0.50245291 0.44379044 1839609
1.6681988 -2.6291308 0.85316139 1839766
1.6733779 -2.6346641 0.84063447 1839767
1.6749543 -2.636991 0.82958078 1839768
1.6750703 -2.6380186 0.81911951 1839769
1.6737328 -2.6377501 0.80927569 1839770
1.6716546 -2.6368213 0.79975158 1839771
1.6710954 -2.6375008 0.85111588 1840481
1.6698731 -2.6373234 0.84131098 1840482
1.6700321 -2.6383855 0.83088219 1840483
1.6722717 -2.6413169 0.81949043 1840484
1.66882 -2.6391466 0.81060165 1840485
1.6695664 -2.6407456 0.79979932 1840486
1.6716765 -2.643574 0.78831619 1840487
1.661912 -2.6364861 0.8538835 1841198
1.6592869 -2.6350365 0.84472322 1841199
1.6545129 -2.6316514 0.83650583 1841200
1.6617044 -2.6390498 0.82298601 1841201
1.6674238 -2.6451321 0.81000024 1841202
1.663246 -2.6422908 0.80144244 1841203
1.6604464 -2.6406927 0.79226184 1841204
1.6551275 -2.6399012 0.84521747 1841913
1.6538887 -2.639694 0.83544976 1841914
1.6519122 -2.6388192 0.82599241 1841915
1.6548182 -2.6423767 0.81431365 1841916
1.6520681 -2.6408041 0.80515975 1841917
1.6527863 -2.6423831 0.79438794 1841918
1.6452175 -2.6397226 0.84813935 1842627
1.6439919 -2.6395171 0.83840436 1842628
1.6420306 -2.6386416 0.82897955 1842629
1.643538 -2.6409352 0.8179704 1842630
1.6436034 -2.6419158 0.80756903 1842631
1.6380486 -2.6377602 0.79975694 1842632
1.637349 -2.6380441 0.78968012 1842633
1.6388506 -2.6441007 0.8492583 1843338
1.6278273 -2.6348851 0.84386212 1843339
1.6230954 -2.631443 0.83575678 1843340
1.6309031 -2.6395335 0.82197225 1843341
1.6309822 -2.6405225 0.81161618 1843342
1.6289357 -2.6395571 0.80221826 1843343
1.6275517 -2.6392031 0.79249585 1843344
1.6263727 -2.6437888 0.84291691 1844052
1.6237407 -2.6422617 0.83384949 1844053
1.6231664 -2.6426415 0.82384306 1844054
1.6204724 -2.6410584 0.81478953 1844055
1.620522 -2.6420209 0.80444705 1844056
1.6198407 -2.6423082 0.79441506 1844057
1.6180484 -2.6460035 0.84496313 1844766
1.6161255 -2.6451185 0.83560258 1844767
1.6141709 -2.6442049 0.8262468 1844768
1.6142617 -2.6452019 0.81593215 1844769
1.61155 -2.6435838 0.80689943 1844770
1.60743 -2.6406491 0.79853934 1844771
1.6108589 -2.6447749 0.78653979 1844772
1.6106145 -2.6485093 0.83650792 1845481
1.6079766 -2.6469412 0.8274768 1845482
1.6080709 -2.6479402 0.81717455 1845483
1.6081265 -2.648906 0.80685264 1845484
1.6108942 -2.6524262 0.79519409 1845485
1.601943 -2.6449227 0.78915203 1845486
1.6000819 -2.6474617 0.83982199 1846199
1.6002202 -2.6484973 0.82956022 1846200
1.6003203 -2.6495004 0.8192786 1846201
1.59626 -2.6465714 0.81092733 1846202
1.5949188 -2.6462142 0.80128974 1846203
1.595598 -2.6477726 0.79064947 1846204
1.5881561 -2.6506841 0.84268719 1846915
1.5862436 -2.6497607 0.83340377 1846916
1.5890955 -2.6533883 0.82188118 1846917
1.5925832 -2.6576304 0.80998111 1846918
1.5885122 -2.6546519 0.80163741 1846919
1.5837365 -2.6509974 0.79365677 1846920
1.5748168 -2.6551685 0.83575451 1847632
1.5756154 -2.6568418 0.82521462 1847633
1.572293 -2.6545358 0.81659275 1847634
1.5730183 -2.6561439 0.80602187 1847635
1.5737032 -2.6577175 0.79542345 1847636
1.5602261 -2.6553137 0.83000362 1848349
1.5596427 -2.6556444 0.82013774 1848350
1.5637552 -2.6605628 0.80796325 1848351
1.5610688 -2.6588469 0.79904294 1848352
1.5637416 -2.6623702 0.78744537 1848353
1.5594695 -2.6561155 0.83005977 1849067
1.5575327 -2.6551237 0.82084191 1849068
1.5589435 -2.6574047 0.80998844 1849069
1.5603117 -2.6596489 0.79909909 1849070
1.56231 -2.6625152 0.78783798 1849071
1.5519267 -2.650301 0.83331829 1849781
1.5527087 -2.6519616 0.82284558 1849782
1.554126 -2.6542478 0.8120169 1849783
1.5534791 -2.6545179 0.802149 1849784
1.5554875 -2.6573923 0.79092479 1849785
1.5436116 -2.6464489 0.82658941 1850501
1.5490874 -2.6527145 0.81383789 1850502
1.5545058 -2.6589339 0.80100119 1850503
1.5417248 -2.6472902 0.79715818 1850504
1.5457205 -2.6521206 0.78494346 1850505
1.5374174 -2.6447768 0.82880276 1851217
1.5388519 -2.6470807 0.81804436 1851218
1.543605 -2.652657 0.8055898 1851219
1.5402521 -2.6502571 0.79709232 1851220
1.5355349 -2.6465113 0.78929722 1851221
1.5318776 -2.6437554 0.8306362 1851934
1.5279368 -2.6407566 0.82252127 1851935
1.5306853 -2.6443624 0.8111167 1851936
1.5313768 -2.6459422 0.80066806 1851937
1.5320288 -2.6474869 0.79019207 1851938
1.518241 -2.6372147 0.82606941 1852653
1.5250149 -2.6448202 0.81271571 1852654
1.5283841 -2.6490586 0.80093992 1852655
1.5277001 -2.6492794 0.79114413 1852656
1.5180963 -2.6428428 0.82500261 1853369
1.5188359 -2.6444678 0.81461877 1853370
1.5182014 -2.6447279 0.80487883 1853371
1.5181984 -2.6456203 0.79478812 1853372
1.5181582 -2.6464791 0.78467846 1853373
1.5140927 -2.6456299 0.82561922 1854089
1.5121639 -2.6445882 0.81656587 1854090
1.5102059 -2.643518 0.80751765 1854091
1.5115404 -2.6457474 0.796776 1854092
1.5085428 -2.6483521 0.81693006 1854806
1.5072536 -2.6479452 0.8075459 1854807
1.5072582 -2.6488423 0.79747975 1854808
1.5092101 -2.6517057 0.7863636 1854809
1.4982487 -2.6454144 0.82060212 1855523
1.4982997 -2.6463523 0.810588 1855524
1.4996361 -2.6485946 0.79987586 1855525
1.4989516 -2.6487951 0.79015881 1855526
1.4932002 -2.6465454 0.82199067 1856238
1.4892898 -2.6434572 0.81399989 1856239
1.4893153 -2.6443694 0.80400348 1856240
1.4932545 -2.6492667 0.79192781 1856241
1.4810582 -2.6411111 0.81696218 1856953
1.4870175 -2.6480794 0.80394632 1856954
1.4830637 -2.6449294 0.795986 1856955
1.4823669 -2.6451077 0.78631926 1856956
1.477324 -2.6435292 0.81759232 1857667
1.4753902 -2.6424284 0.80864984 1857668
1.4832605 -2.6513901 0.79456627 1857669
1.479942 -2.6488752 0.7862677 1857670
1.4769922 -2.6492331 0.81650311 1858384
1.4763685 -2.6494749 0.80686605 1858385
1.4750569 -2.6490099 0.79756093 1858386
1.4750198 -2.6498613 0.78755921 1858387
1.4720958 -2.6501741 0.81773078 1859100
1.4760549 -2.6551516 0.80573457 1859101
1.4721302 -2.6519783 0.79778427 1859102
1.4753506 -2.6562028 0.7860477 1859103
1.4665622 -2.6527212 0.80918789 1859817
1.463961 -2.6508999 0.80058807 1859818
1.4632831 -2.6510808 0.79096162 1859819
1.4589623 -2.6523559 0.81155145 1860531
1.4583235 -2.65257 0.80194801 1860532
1.457003 -2.6520736 0.79268032 1860533
1.4500235 -2.6506555 0.81457835 1861247
1.4506912 -2.6522365 0.80432278 1861248
1.4526132 -2.6551414 0.79334706 1861249
1.4544919 -2.6580067 0.78232795 1861250
1.4476442 -2.655664 0.81421041 1861963
1.4502447 -2.6592927 0.80292016 1861964
1.4444216 -2.6540177 0.79607999 1861965
1.4411283 -2.6576416 0.80600411 1862677
1.4372596 -2.6544082 0.7981568 1862678
1.4449152 -2.6634381 0.78403556 1862679
1.4334806 -2.6585495 0.80810779 1863394
1.4392384 -2.665592 0.79509056 1863395
1.429672 -2.6636145 0.80821377 1864114
1.4271107 -2.6617351 0.79968894 1864115
1.4245239 -2.6598282 0.79117787 1864116
1.4262075 -2.668283 0.80826396 1864832
1.4211073 -2.6636367 0.80111665 1864833
1.4185321 -2.6617248 0.79261714 1864834
1.4197357 -2.6639125 0.78200907 1864835
1.4213777 -2.667706 0.80981791 1865552
1.418197 -2.6651268 0.80164975 1865553
1.4143595 -2.6618323 0.7938531 1865554
1.4168302 -2.6654022 0.78255016 1865555
1.4145455 -2.6659708 0.80257648 1866269
1.4126161 -2.6647444 0.79373902 1866270
1.4125545 -2.6655583 0.78384644 1866271
1.4093877 -2.6670136 0.80389762 1866984
1.4087297 -2.66717 0.79437327 1866985
1.4086692 -2.6679847 0.78448492 1866986
1.4030892 -2.6677608 0.80545437 1867703
1.4024379 -2.6679187 0.79594618 1867704
1.4036394 -2.6701224 0.78536743 1867705
1.3971983 -2.6703823 0.7970798 1868422
1.3952665 -2.6691172 0.78827512 1868423
-1.7150117 0.59150755 0.40510646 1868964
1.3884081 -2.6760845 0.79841954 1869141
1.3896039 -2.6783025 0.78785819 1869142
1.3833205 -2.6851006 0.80750459 1869858
1.3808191 -2.6831424 0.79904497 1869859
1.3795314 -2.6825597 0.78989416 1869860
1.3680258 -2.6809008 0.80336601 1870573
1.3667576 -2.6803234 0.79425943 1870574
1.3666904 -2.6811211 0.78443784 1870575
1.3616054 -2.6837146 0.79480356 1871291
1.3558559 -2.6864064 0.79587436 1872005
1.3527399 -2.6836693 0.7878449 1872006
1.3483397 -2.6864293 0.78854197 1872725
1.3428382 -2.6869128 0.79975671 1873437
1.340359 -2.6848786 0.79140663 1873438
1.3348489 -2.682287 0.79370201 1874155
1.3293333 -2.6766748 0.78718823 1874156
1.3312711 -2.6774235 0.78633958 1874876
1.3265549 -2.6703718 0.78952146 1875593
1.3240513 -2.6682994 0.78127229 1875594
1.3281891 -2.6788735 0.786744 1876306
1.3110447 -2.6673467 0.78534448 1877024
1.3042693 -2.6671085 0.78750432 1877741
1.2866368 -2.6622312 0.78477269 1879167
1.2929447 -2.6715655 0.78044736 1879887
1.2869992 -2.6644075 0.78411233 1880602
1.2865151 -2.6672928 0.78341472 1881315
1.2717378 -2.6672246 0.77855736 1882030
1.2628523 -2.6735666 0.77955031 1882746
1.2550886 -2.682569 0.77944058 1884175
0.60576779 -2.4949501 0.93444759 1962524
0.59797794 -2.4961867 0.93547243 1963964
0.59641582 -2.4978263 0.93516541 1964685
0.58583301 -2.4963617 0.93072039 1966128
0.57596165 -2.4973223 0.93221778 1966848
0.56812781 -2.5013573 0.93216687 1967569
0.56384635 -2.4904268 0.93026537 1967570
0.5665257 -2.4970634 0.93418914 1968289
0.5651173 -2.4936595 0.93581927 1969009
0.56402248 -2.4913321 0.92993861 1969010
0.56889731 -2.5096829 0.93580878 1969729
0.56558424 -2.501327 0.93263906 1969730
0.46128246 -2.6500933 0.93391794 1999278
0.43804055 -2.6864161 0.93020111 2005758
0.42777577 -2.6802402 0.93358725 2007199
0.42353469 -2.6812353 0.93367577 2007920
0.41926217 -2.6889155 0.93128479 2008641
0.41756484 -2.6818881 0.9266147 2008642
0.4133327 -2.6893029 0.93174821 2009362
0.41245303 -2.6859016 0.92560059 2009363
0.40788615 -2.6847961 0.93402481 2010082
0.40857369 -2.6886692 0.92493963 2010083
0.40677866 -2.6831224 0.93471819 2010803
0.4066909 -2.6833644 0.92712194 2010804
0.40524697 -2.679882 0.92863923 2011525
0.40234751 -2.6821959 0.93556321 2012245
0.40283522 -2.6851685 0.92686456 2012246
0.39716306 -2.6797366 0.92952025 2012966
0.39330766 -2.6831946 0.93617511 2013686
0.39266831 -2.6807101 0.92970109 2013687
0.38798106 -2.6836102 0.9291721 2014408
0.38734648 -2.6810927 0.92270082 2014409
0.38277006 -2.6837132 0.92954504 2015129
0.38214689 -2.6811948 0.92307782 2015130
0.37859401 -2.6817193 0.93073559 2015850
0.37850997 -2.6819355 0.92315859 2015851
0.3758646 -2.6832101 0.93041283 2016571
0.37717971 -2.6907115 0.91984075 2016572
0.37191239 -2.6783104 0.9327026 2017292
0.37131307 -2.6758008 0.92626727 2017293
0.37088114 -2.6741731 0.91946542 2017294
0.36885652 -2.6779599 0.93311614 2018013
0.36809272 -2.6745391 0.9270587 2018014
0.36800781 -2.6747334 0.91950911 2018015
0.36479992 -2.6721056 0.93566793 2018734
0.36523271 -2.6750772 0.92702204 2018735
0.36481071 -2.6734507 0.92022824 2018736
0.36164436 -2.6755099 0.9344095 2019455
0.36190313 -2.6775651 0.92612517 2019456
0.36181977 -2.6777551 0.91856754 2019457
0.36073098 -2.6724532 0.91328859 2019458
0.35609591 -2.6701636 0.92955887 2020176
0.35536122 -2.6667228 0.923549 2020177
0.35609519 -2.6714444 0.91412151 2020178
0.35318255 -2.6789629 0.93374145 2020896
0.35343239 -2.681016 0.92544913 2020897
0.35222277 -2.6748199 0.92052805 2020898
0.35165462 -2.6722498 0.9141233 2020899
0.34828222 -2.6675789 0.93858725 2021617
0.34837416 -2.6687396 0.93072134 2021618
0.34845847 -2.6698599 0.92283434 2021619
0.3480579 -2.6682086 0.91607183 2021620
0.34596747 -2.6708517 0.93763691 2022338
0.34542543 -2.6683521 0.93125367 2022339
0.34566692 -2.6703868 0.922993 2022340
0.34464172 -2.665092 0.91775745 2022341
0.34502652 -2.6679618 0.90908545 2022342
0.34164855 -2.6633649 0.93349791 2023060
0.34220117 -2.6672349 0.92450607 2023061
0.3416557 -2.6646776 0.91814137 2023062
0.3406401 -2.6593647 0.91294539 2023063
0.3398768 -2.6690879 0.93875867 2023780
0.339966 -2.6702492 0.93089283 2023781
0.33927733 -2.666805 0.92489433 2023782
0.33889228 -2.6651597 0.91815186 2023783
0.33804169 -2.6607542 0.91257 2023784
0.3368713 -2.6688979 0.93163097 2024502
0.33573449 -2.6627154 0.92677373 2024503
0.33550766 -2.661989 0.91966963 2024504
0.33572981 -2.6639585 0.91140354 2024505
0.33132944 -2.6604347 0.93542004 2025223
0.33096391 -2.6588337 0.92871463 2025224
0.33059329 -2.6572025 0.92201227 2025225
0.33111206 -2.6610036 0.91299897 2025226
0.32745719 -2.6629629 0.93469137 2025944
0.32768604 -2.6650143 0.92646718 2025945
0.32790726 -2.6670222 0.91821396 2025946
0.32724229 -2.6635211 0.91224605 2025947
0.32715791 -2.6636329 0.9047389 2025948
0.32304895 -2.662755 0.93514985 2026665
0.32356277 -2.6666381 0.92617464 2026666
0.3239238 -2.6695583 0.91753578 2026667
0.32398918 -2.6706085 0.90963137 2026668
0.32304397 -2.6652503 0.90443403 2026669
0.31898916 -2.66434 0.93477005 2027386
0.31935161 -2.6673076 0.92616844 2027387
0.31942338 -2.6684017 0.91829282 2027388
0.31977049 -2.671279 0.90962511 2027389
0.31521004 -2.6677642 0.93372667 2028107
0.31514791 -2.6679816 0.92624557 2028108
0.3146638 -2.6654205 0.9198963 2028109
0.3145906 -2.6655686 0.91240162 2028110
0.31054726 -2.6619196 0.93639404 2028828
0.31007856 -2.6594007 0.93007374 2028829
0.30974215 -2.6577687 0.92338318 2028830
0.31035325 -2.6624947 0.91399688 2028831
0.31000534 -2.66079 0.90728492 2028832
0.307446 -2.6652174 0.93534201 2029547
0.30738747 -2.665441 0.92787707 2029548
0.30745727 -2.6665423 0.92001772 2029549
0.30778816 -2.6694291 0.9113664 2029550
0.30731061 -2.6668007 0.90501571 2029551
0.30367976 -2.6667261 0.93504053 2030268
0.30283087 -2.6614485 0.92983609 2030269
0.30303258 -2.6634731 0.92161548 2030270
0.30309612 -2.6645405 0.91375136 2030271
0.30328435 -2.6664791 0.90547717 2030272
0.29860577 -2.6655998 0.93583572 2030989
0.29829285 -2.6639905 0.9291296 2030990
0.29874647 -2.6678433 0.92013812 2030991
0.29829478 -2.6652493 0.9137997 2030992
0.29809511 -2.6644523 0.90669388 2030993
0.29283026 -2.6608038 0.93812364 2031710
0.29265255 -2.6601205 0.93106431 2031711
0.29297122 -2.6630673 0.92247444 2031712
0.29253271 -2.6604817 0.91616017 2031713
0.29258937 -2.6615188 0.90829951 2031714
0.28771499 -2.6624568 0.93780333 2032431
0.28790867 -2.6645253 0.92960787 2032432
0.2874864 -2.6619685 0.92329013 2032433
0.28706053 -2.6593843 0.91698372 2032434
0.28663102 -2.6567729 0.91068882 2032435
0.28777215 -2.6659818 0.89929098 2032436
0.28223205 -2.6641564 0.93759447 2033152
0.28206429 -2.6634688 0.93052691 2033153
0.28165531 -2.6609139 0.92421699 2033154
0.28183311 -2.6629076 0.9159919 2033155
0.28188697 -2.6639438 0.90812731 2033156
0.28193513 -2.6649394 0.90024221 2033157
0.2757988 -2.6565781 0.94099134 2033873
0.27621412 -2.6604991 0.93207401 2033874
0.27616301 -2.6607008 0.92463636 2033875
0.27610689 -2.6608655 0.91718584 2033876
0.27627459 -2.6628208 0.90894407 2033877
0.27655038 -2.6656442 0.90028042 2033878
0.27416781 -2.6661251 0.93719363 2034592
0.27423432 -2.667273 0.92936748 2034593
0.27384305 -2.6647103 0.92304534 2034594
0.27344841 -2.6621203 0.91673464 2034595
0.27338824 -2.6622458 0.90926743 2034596
0.27343544 -2.6632459 0.90139437 2034597
0.2709696 -2.6637297 0.93837374 2035313
0.27058983 -2.6612051 0.93206853 2035314
0.27020675 -2.658653 0.92577463 2035315
0.27070862 -2.6634028 0.91640985 2035316
0.27109239 -2.6671841 0.90738142 2035317
0.27080616 -2.6654379 0.9006682 2035318
0.26875886 -2.6621346 0.93912882 2036034
0.26882499 -2.6632907 0.93132293 2036035
0.26833597 -2.659817 0.92540216 2036036
0.2678442 -2.6563194 0.91950071 2036037
0.26888266 -2.6656022 0.90816879 2036038
0.26903737 -2.6675105 0.89989042 2036039
0.26853228 -2.6639073 0.89396757 2036040
0.26691881 -2.6595778 0.94039053 2036755
0.26654801 -2.6570606 0.93410546 2036756
0.26628301 -2.6554341 0.92745036 2036757
0.26655838 -2.6583593 0.91887236 2036758
0.26671901 -2.6603224 0.9106468 2036759
0.26676562 -2.6613288 0.90278584 2036760
0.26611394 -2.6643496 0.93853348 2037476
0.26520288 -2.6572249 0.9341138 2037477
0.26461557 -2.6528437 0.92860216 2037478
0.26488951 -2.6557741 0.92003638 2037479
0.26591128 -2.665061 0.90870905 2037480
0.26617128 -2.6678851 0.90004158 2037481
0.26578188 -2.6651926 0.89372122 2037482
0.26021358 -2.6438117 0.93967026 2038198
0.26080769 -2.6495557 0.93002617 2038199
0.26118293 -2.6534095 0.92109114 2038200
0.26060224 -2.6489775 0.91561437 2038201
0.26065096 -2.6500053 0.90780556 2038202
0.26079965 -2.6519041 0.89957905 2038203
0.26073322 -2.6519387 0.89212692 2038204
0.25435454 -2.6242535 0.94074231 2038919
0.25410762 -2.6226528 0.93423134 2038920
0.25499266 -2.6310909 0.92344207 2038921
0.25659001 -2.6458573 0.90981507 2038922
0.25622311 -2.6432054 0.90359491 2038923
0.25667328 -2.6478081 0.89417654 2038924
0.242972 -2.5562584 0.93471491 2039645
0.24722922 -2.5955153 0.91024929 2039646
0.2494667 -2.6164458 0.89361244 2039647
0.22955582 -2.465189 0.94235915 2040371
0.23376717 -2.504977 0.91695756 2040372
0.23467816 -2.5140307 0.90578222 2040373
0.23875116 -2.5525892 0.88022918 2040374
0.21843305 -2.3923173 0.93238586 2041099
0.22014995 -2.4092741 0.91732806 2041100
0.22527288 -2.4588661 0.88522387 2041101
0.17617957 -8.0945597 1.8038511 2067659
0.17617545 -8.0937338 1.7738111 2067660
0.1761698 -8.0927773 1.7437837 2067661
0.17612793 -8.0886898 1.7136849 2067662
0.1798441 -8.0755291 1.8030797 2068380
0.17989863 -8.0796967 1.7733072 2068381
0.17996374 -8.084733 1.7435362 2068382
0.18003941 -8.090641 1.7137544 2068383
0.16058497 -8.0967178 1.8039405 2069101
0.16053316 -8.0898972 1.7736703 2069102
0.16054514 -8.0899391 1.7436929 2069103
0.16058379 -8.0928478 1.7138046 2069104
0.11928587 -8.0909863 1.8036102 2069822
0.11932071 -8.0931568 1.7736984 2069823
0.11935513 -8.0951977 1.7437731 2069824
0.11938584 -8.0961084 1.7138066 2069825
0.078062199 -8.0889978 1.8034573 2070543
0.078081109 -8.0981636 1.7738125 2070544
0.078133076 -8.0952082 1.7437027 2070545
0.078179933 -8.0941191 1.7136798 2070546
0.078219004 -8.0958986 1.6837422 2070547
0.055513818 -8.0879002 1.8034095 2071264
0.055559456 -8.0890713 1.7734739 2071265
0.055575877 -8.095109 1.7436961 2071266
0.055629116 -8.0950203 1.7137015 2071267
0.055689104 -8.0938015 1.683688 2071268
0.033060253 -8.098732 1.8035684 2071985
0.033147935 -8.0959082 1.7734373 2071986
0.033209007 -8.0959492 1.7434337 2071987
0.033280525 -8.0948591 1.7134066 2071988
0.033325497 -8.0966387 1.6834645 2071989
0.014904613 -8.0895548 1.8030512 2072706
0.014923377 -8.0937233 1.7732174 2072707
0.014991375 -8.0937643 1.7432227 2072708
0.014989514 -8.0996714 1.7134012 2072709
0.014989298 -8.1054487 1.6835325 2072710
0.0034549076 -8.096405 1.8033177 2073427
0.0034983798 -8.0985765 1.7733797 2073428
0.0035436444 -8.1006165 1.7434281 2073429
0.0035771513 -8.1035261 1.7134917 2073430
0.0036530981 -8.1033058 1.6834629 2073431
-0.0076714153 -8.0922356 1.8033404 2074148
-0.0076118801 -8.0934076 1.773383 2074149
-0.0075351717 -8.0934496 1.7433883 2074150
-0.0074261357 -8.091362 1.7133418 2074151
-0.0073455139 -8.0911417 1.6833653 2074152
-0.0092517054 -8.0942106 1.8034114 2074869
-0.0092380857 -8.098381 1.7735559 2074870
-0.0091761509 -8.0994225 1.7435719 2074871
-0.009143007 -8.1023321 1.7136399 2074872
-0.0090924185 -8.1041126 1.6836629 2074873
-0.0091525083 -8.0932083 1.8034461 2075590
-0.0091388542 -8.0973778 1.773595 2075591
-0.0091539351 -8.1034164 1.7437779 2075592
-0.0090129571 -8.0993319 1.7136314 2075593
-0.0088546639 -8.0941143 1.683501 2075594
-0.019009976 -8.1010447 1.8037465 2076311
-0.018897396 -8.0992212 1.7736392 2076312
-0.018833132 -8.1002636 1.7436509 2076313
-0.018817089 -8.1041737 1.7137427 2076314
-0.018681195 -8.100956 1.6836381 2076315
-0.053496152 -8.1013889 1.8036478 2077032
-0.05344848 -8.1035624 1.7736837 2077033
-0.053376108 -8.1046047 1.7436736 2077034
-0.053191848 -8.1005201 1.7135184 2077035
-0.053113814 -8.1013012 1.6835221 2077036
-0.087878697 -8.1045485 1.8038849 2077753
-0.087774903 -8.1047249 1.7738296 2077754
-0.087587245 -8.1017723 1.7436807 2077755
-0.087503299 -8.1026859 1.7136751 2077756
-0.087389074 -8.1024685 1.683642 2077757
-0.1074192 -8.1029987 1.8037752 2078474
-0.10733793 -8.1041737 1.7737612 2078475
-0.10719351 -8.1032209 1.7436775 2078476
-0.10707487 -8.1031342 1.713635 2078477
-0.10715963 -8.1099129 1.6837639 2078478
-0.12217174 -8.0985489 1.8034601 2079195
-0.12205535 -8.0987244 1.7734268 2079196
-0.12222102 -8.1077595 1.7436895 2079197
-0.12222336 -8.1116705 1.7137377 2079198
-0.12193553 -8.1064587 1.6835424 2079199
-0.13864677 -8.1060019 1.803775 2079916
-0.13845605 -8.1041822 1.773633 2079917
-0.13822676 -8.1012306 1.74348 2079918
-0.13819794 -8.1041422 1.7135262 2079919
-0.13806224 -8.1039257 1.6834801 2079920
-0.16142495 -8.1001902 1.8035566 2080637
-0.16155683 -8.107358 1.7737679 2080638
-0.16138378 -8.1064062 1.7436625 2080639
-0.1612059 -8.1053238 1.7135702 2080640
-0.16117293 -8.1081047 1.6835866 2080641
