# .PCD v0.7 - Point Cloud Data file format
VERSION 0.7
FIELDS x y z intensity
SIZE 4 4 4 4
TYPE F F F F
COUNT 1 1 1 1
WIDTH 1207
HEIGHT 1
VIEWPOINT 0 0 0 1 0 0 0
POINTS 1207
DATA ascii
1.0508361 -2.6501281 1.0865771 1906369
1.0548373 -2.6568074 1.0766193 1906370
1.0582659 -2.6626408 1.0668396 1906371
1.0552077 -2.6588018 1.0600914 1906372
1.0537472 -2.6573458 1.0525899 1906373
0.99649549 -2.5746124 1.0494789 1906377
0.9859708 -2.5595503 1.0472425 1906378
0.97865027 -2.5492725 1.0434318 1906379
-1.4086671 0.93374008 1.2896237 1907009
-1.4041985 0.92833209 1.3017678 1907010
-1.4048244 0.93024224 1.3131388 1907011
-1.4054215 0.9321118 1.3245225 1907012
1.0501375 -2.6573293 1.1092365 1907084
1.049884 -2.6576605 1.1012779 1907085
1.0528389 -2.6628063 1.0918633 1907086
1.0477005 -2.6558118 1.0860705 1907087
1.0430918 -2.6496069 1.0800956 1907088
1.0443698 -2.652241 1.0713872 1907089
1.0456218 -2.6548402 1.0626451 1907090
1.0452446 -2.6549935 1.0546565 1907091
1.0090095 -2.6032927 1.0407637 1907095
0.98101658 -2.5617912 1.047738 1907096
-1.4022751 0.94054449 1.2890136 1907726
-1.4023601 0.94168133 1.3005027 1907727
-1.4012839 0.9411363 1.3121533 1907728
-1.3956478 0.93398237 1.3243861 1907729
1.046517 -2.6586323 1.1096365 1907801
1.0441159 -2.655726 1.1026298 1907802
1.0433092 -2.655221 1.0949246 1907803
1.0414115 -2.6530716 1.0877097 1907804
1.0416373 -2.6541255 1.0795132 1907805
1.0450456 -2.6599855 1.0697773 1907806
1.0377536 -2.6496928 1.0651336 1907807
1.0363197 -2.648243 1.0577072 1907808
1.0113534 -2.6133268 1.038134 1907812
0.99189687 -2.5845606 1.0405307 1907813
-1.3900479 0.93320453 1.2898644 1908445
-1.3890033 0.9326936 1.3014634 1908446
-1.3890593 0.93378299 1.3128914 1908447
-1.3885226 0.93400925 1.3243978 1908448
1.0396503 -2.6550627 1.1113818 1908520
1.0383333 -2.6537769 1.1039306 1908521
1.0418115 -2.6597528 1.0943183 1908522
1.0383157 -2.6551695 1.087826 1908523
1.041207 -2.6602652 1.0783823 1908524
1.0440677 -2.6653211 1.0688795 1908525
1.0383914 -2.657429 1.0634441 1908526
1.0412034 -2.6624174 1.0538912 1908527
1.0225065 -2.6361663 1.0388925 1908530
1.007829 -2.6145537 1.0385244 1908531
0.98211724 -2.5761261 1.044319 1908532
-1.3846054 0.93570089 1.2896845 1909163
-1.3852521 0.93765402 1.3010293 1909164
-1.3847455 0.93792135 1.3125449 1909165
-1.3819597 0.93485337 1.3243544 1909166
1.0304582 -2.6485279 1.1061376 1909239
1.0323327 -2.6520846 1.0972866 1909240
1.0309867 -2.6507437 1.089864 1909241
1.0317487 -2.6526134 1.0814519 1909242
1.0324868 -2.6544502 1.0730145 1909243
1.0337306 -2.6570609 1.064294 1909244
1.0323031 -2.655601 1.0568503 1909245
1.0074862 -2.6205592 1.0372025 1909249
0.97712934 -2.5748465 1.0455198 1909250
0.96047634 -2.550055 1.0468394 1909251
-1.3747618 0.93154866 1.2902266 1909879
-1.3697978 0.92526233 1.3023664 1909880
-1.3704141 0.92716813 1.3136414 1909881
-1.3710024 0.92903364 1.3249292 1909882
1.02851 -2.6521854 1.1058633 1909955
1.031971 -2.6581817 1.0962816 1909956
1.027442 -2.6519651 1.0903081 1909957
1.0239642 -2.6473525 1.0838947 1909958
1.0252359 -2.6500075 1.0752419 1909959
1.0312361 -2.659909 1.0642358 1909960
1.0271752 -2.6544039 1.0580972 1909961
1.03311 -2.6642206 1.0469531 1909962
0.98266119 -2.5896244 1.0411817 1909966
0.96552569 -2.5639791 1.0427181 1909967
-1.3711276 0.93639553 1.2897619 1910596
-1.3684157 0.9333986 1.3015772 1910597
-1.3729438 0.9410857 1.312324 1910598
-1.370735 0.9388293 1.3240423 1910599
1.0231844 -2.6522565 1.1068499 1910672
1.029809 -2.6631463 1.0958378 1910673
1.0226538 -2.6528511 1.0910749 1910674
1.0271065 -2.6604121 1.0809319 1910675
1.0246749 -2.6573811 1.0739981 1910676
1.0253853 -2.6591895 1.0655442 1910677
1.0276475 -2.6633928 1.05628 1910678
1.0230625 -2.6570425 1.0504236 1910679
0.9765045 -2.58799 1.0428604 1910683
0.96516514 -2.571151 1.0412569 1910684
-1.3585364 0.93043339 1.2904491 1911314
-1.3575057 0.92990369 1.301962 1911315
-1.3581176 0.93181157 1.3132238 1911316
-1.3564744 0.93037015 1.3247981 1911317
1.0194695 -2.6582227 1.1064397 1911390
1.0218447 -2.6626101 1.0973412 1911391
1.015785 -2.6539211 1.0921075 1911392
1.0154928 -2.6541743 1.0842195 1911393
1.0136082 -2.6519573 1.0770823 1911394
1.0164156 -2.6570268 1.0676453 1911395
1.012403 -2.6515048 1.0615506 1911396
1.0156819 -2.6573153 1.0517853 1911397
1.0189285 -2.6630828 1.0419533 1911398
0.9967792 -2.6300402 1.0374022 1911400
0.99220222 -2.6236191 1.0318404 1911401
0.94778585 -2.5550952 1.0484185 1911402
0.94119632 -2.5454941 1.0444609 1911403
-1.3502344 0.93595874 1.2899671 1912032
-1.3503168 0.93708205 1.3013127 1912033
-1.3503717 0.93816406 1.3126625 1912034
-1.35206 0.94169283 1.3237907 1912035
1.0047823 -2.6469719 1.110985 1912108
1.0071574 -2.6513817 1.1019635 1912109
1.0027132 -2.6451347 1.0960702 1912110
1.0092156 -2.6560073 1.0850109 1912111
1.0104687 -2.6586761 1.0763634 1912112
1.0111766 -2.6604953 1.0679395 1912113
1.0087451 -2.6573989 1.0610592 1912114
1.0099287 -2.6599679 1.0523449 1912115
1.01264 -2.6649368 1.0427879 1912116
1.0023991 -2.6495891 1.0400239 1912117
0.97010064 -2.600292 1.0414462 1912119
0.94191122 -2.5566878 1.0492635 1912120
0.93382066 -2.5446415 1.0461842 1912121
-1.3408266 0.93976372 1.2896651 1912750
-1.3381562 0.93673307 1.3014222 1912751
-1.3354584 0.93365711 1.31314 1912752
-1.3332835 0.93136722 1.324743 1912753
1.0033311 -2.6641827 1.1082181 1912826
1.0020461 -2.6628501 1.100819 1912827
0.99557012 -2.6532891 1.0958707 1912828
0.99942458 -2.6601036 1.086045 1912829
0.99963564 -2.661145 1.0779121 1912830
0.99827957 -2.6597011 1.0705332 1912831
0.99844921 -2.6606803 1.0623795 1912832
1.0021917 -2.6673398 1.0523517 1912833
1.0007737 -2.6658027 1.0449443 1912834
0.96529198 -2.6114686 1.0399861 1912837
0.93838692 -2.5693035 1.0471854 1912838
0.93392646 -2.5628719 1.0420307 1912839
-1.3220412 0.94129515 1.2896543 1913470
-1.3215772 0.94158047 1.3010364 1913471
-1.3205407 0.94098878 1.312494 1913472
-1.3205677 0.94202423 1.3237869 1913473
0.98613077 -2.6590648 1.1120753 1913546
0.98845726 -2.6635063 1.1030567 1913547
0.98615134 -2.660495 1.0961823 1913548
0.9843424 -2.6582828 1.0890847 1913549
0.99068081 -2.6692002 1.0779654 1913550
0.98730069 -2.6644592 1.0716037 1913551
0.98848736 -2.6670825 1.0629367 1913552
0.98711008 -2.6655717 1.0555615 1913553
0.99230748 -2.6746774 1.0446953 1913554
0.98632967 -2.6657391 1.0397443 1913555
0.97681147 -2.6510706 1.0368212 1913556
0.95065075 -2.6094742 1.0433408 1913557
0.92606628 -2.5703881 1.0494212 1913558
-1.3101393 0.95723361 1.2881469 1914187
-1.3059069 0.95165294 1.3001524 1914188
-1.3021864 0.94686198 1.3120124 1914189
-1.3022133 0.94789553 1.3232836 1914190
0.97910088 -2.6623614 1.1126027 1914263
0.97734177 -2.6601982 1.1055055 1914264
0.98013872 -2.6654451 1.0962306 1914265
0.98037106 -2.6665249 1.0881361 1914266
0.97754359 -2.6626251 1.0815378 1914267
0.97976059 -2.6669402 1.0724089 1914268
0.97538626 -2.6605189 1.0666178 1914269
0.98310345 -2.6738086 1.0545297 1914270
0.97768891 -2.6656902 1.0492942 1914271
0.9803108 -2.6706822 1.0397631 1914272
0.97437364 -2.6617038 1.0348903 1914273
0.94889885 -2.6207972 1.0410851 1914274
0.91898596 -2.5725965 1.0502627 1914275
-1.2923536 0.95201176 1.2888479 1914905
-1.2935034 0.95480913 1.2999455 1914906
-1.2919511 0.95336264 1.3114673 1914907
-1.2893018 0.95018947 1.3231194 1914908
0.98491889 -2.6563725 1.1127065 1914981
0.9836601 -2.6550441 1.1053786 1914982
0.98340827 -2.6553361 1.0975708 1914983
0.98262531 -2.6547747 1.0900022 1914984
0.98284477 -2.6558287 1.0819285 1914985
0.98559076 -2.6609569 1.0725547 1914986
0.98016644 -2.6529179 1.0672957 1914987
0.99099469 -2.6710906 1.0536306 1914988
0.98807269 -2.6670902 1.0470427 1914989
0.98564488 -2.6638856 1.0402157 1914990
0.97612476 -2.6492212 1.0373015 1914991
0.96106154 -2.6255836 1.0376306 1914992
0.94048285 -2.5930047 1.0413408 1914993
0.91944885 -2.5596578 1.0456676 1914994
-1.3020331 0.94350529 1.2896209 1915625
-1.2988772 0.93959391 1.3013875 1915626
-1.2983912 0.93982744 1.3127047 1915627
-1.2984179 0.94085747 1.323941 1915628
0.98696041 -2.6448905 1.1067059 1915702
0.98155355 -2.6369777 1.1013697 1915703
0.98026228 -2.6356134 1.0941217 1915704
0.98821169 -2.6489742 1.0823343 1915705
0.98738647 -2.6483605 1.0747699 1915706
0.9875682 -2.6493535 1.0666834 1915707
0.99387175 -2.6601188 1.0553972 1915708
0.99553382 -2.6634853 1.046419 1915709
0.99257612 -2.6594768 1.0398624 1915710
0.96627653 -2.6188564 1.0381336 1915712
0.93741572 -2.5733821 1.0464442 1915713
0.92891026 -2.5604465 1.0435994 1915714
-1.3111596 0.93406588 1.2904807 1916346
-1.3117837 0.93601531 1.3016419 1916347
-1.3091198 0.9329108 1.3132966 1916348
-1.3096902 0.93477672 1.3244573 1916349
0.98764402 -2.6431322 1.1146351 1916422
0.98896706 -2.6459267 1.1061502 1916423
0.98510212 -2.6404781 1.1000731 1916424
0.98277462 -2.637471 1.0933011 1916425
0.98764098 -2.6459086 1.0830164 1916426
0.98630309 -2.6444793 1.0757217 1916427
0.98802805 -2.6479282 1.0668688 1916428
0.99126405 -2.65379 1.057178 1916429
0.99139845 -2.6547139 1.0490377 1916430
0.98895669 -2.6515312 1.0422494 1916431
0.98395079 -2.6442547 1.0368767 1916432
0.97028279 -2.6231413 1.0363668 1916433
0.94545382 -2.5841784 1.0423645 1916434
0.93032968 -2.5606894 1.0432373 1916435
-1.312047 0.93228561 1.2906581 1917066
-1.3126715 0.93423373 1.301815 1917067
-1.3116373 0.93363631 1.313225 1917068
-1.3078556 0.92881787 1.325 1917069
0.98256958 -2.6408088 1.1082017 1917143
0.98232567 -2.6411119 1.1004488 1917144
0.97434753 -2.629072 1.0964129 1917145
0.98331898 -2.6440878 1.0841588 1917146
0.98352593 -2.6451173 1.0761102 1917147
0.9831993 -2.6452961 1.0683059 1917148
0.98847586 -2.6544375 1.0575758 1917149
0.98707962 -2.6529129 1.0502478 1917150
0.98362809 -2.648098 1.0440234 1917151
0.9786399 -2.6408188 1.038675 1917152
0.97059882 -2.6286418 1.0350863 1917153
0.95799893 -2.6091454 1.0341911 1917154
0.95756972 -2.6091533 1.0265206 1917155
-1.3117322 0.93960309 1.2899215 1917783
-1.3112701 0.93988365 1.3012733 1917784
-1.3113238 0.94095802 1.3125405 1917785
-1.3113508 0.94199133 1.3238117 1917786
0.97646576 -2.640152 1.1094453 1917860
0.97520071 -2.6388111 1.1021974 1917861
0.98364526 -2.653069 1.0902408 1917862
0.98335481 -2.6533022 1.0824238 1917863
0.97794044 -2.6452975 1.077165 1917864
0.9776178 -2.6454782 1.0693733 1917865
0.97778404 -2.6464474 1.0613081 1917866
0.980977 -2.6522937 1.0516108 1917867
0.97754472 -2.6474721 1.0454022 1917868
0.97916633 -2.6507947 1.0364593 1917869
0.94840413 -2.6018903 1.0455137 1917870
0.96113008 -2.6231158 1.0304641 1917871
0.94456631 -2.5970752 1.0320214 1917872
-1.3083707 0.9488228 1.2889949 1918502
-1.3084513 0.94994217 1.3002883 1918503
-1.3095853 0.95269507 1.3114253 1918504
-1.3096124 0.95373213 1.3227355 1918505
0.95400667 -2.6508379 1.1113048 1918579
0.95477599 -2.6528039 1.1030943 1918580
0.9600206 -2.6622069 1.09263 1918581
0.95525014 -2.6549764 1.0870999 1918582
0.95097202 -2.6485589 1.081381 1918583
0.95215881 -2.6512275 1.0728586 1918584
0.9533217 -2.6538603 1.0643027 1918585
0.95495635 -2.6572831 1.0554448 1918586
0.95706052 -2.6614926 1.0462726 1918587
0.95518249 -2.6590705 1.0392667 1918588
0.94588673 -2.6442778 1.0364963 1918589
0.92329735 -2.6072924 1.0415738 1918590
0.90223837 -2.5728264 1.0461509 1918591
0.89694434 -2.5646567 1.0416721 1918592
-1.2822403 0.9817183 1.2858928 1919222
-1.2807379 0.98030835 1.2975029 1919223
-1.2839546 0.98646593 1.3083622 1919224
-1.2871455 0.99258649 1.3192778 1919225
0.92763019 -2.654413 1.1150801 1919299
0.93131745 -2.6614292 1.1054612 1919300
0.92473853 -2.6508138 1.1009507 1919301
0.92935401 -2.6594334 1.0907652 1919302
0.93393636 -2.6680057 1.0804867 1919303
0.93266207 -2.6665101 1.07323 1919304
0.93234092 -2.6666553 1.0654544 1919305
0.92813092 -2.660104 1.0598141 1919306
0.92970985 -2.6635237 1.0509672 1919307
0.93753213 -2.6777124 1.0384865 1919308
0.92557114 -2.6577916 1.0373573 1919309
0.89104038 -2.5989027 1.0498031 1919310
0.89882791 -2.613025 1.0374123 1919311
-1.2503892 1.0068748 1.2950763 1919943
-1.2504414 1.0079612 1.3064519 1919944
-1.2525254 1.0124214 1.3175222 1919945
0.91999775 -2.6544333 1.1163189 1920019
0.9236626 -2.6614678 1.1067184 1920020
0.93068635 -2.6743352 1.095314 1920021
0.92171854 -2.6594706 1.0920554 1920022
0.92096317 -2.6588485 1.0846021 1920023
0.92645562 -2.6690781 1.073777 1920024
0.92180687 -2.6616983 1.0683775 1920025
0.92676139 -2.6710069 1.0576899 1920026
0.92928201 -2.6760931 1.0482619 1920027
0.92363346 -2.6669707 1.0434706 1920028
0.9103334 -2.6445205 1.0432496 1920029
0.91233134 -2.6486952 1.0341417 1920030
0.87522787 -2.5847363 1.0486592 1920031
-1.2457443 1.0200675 1.2938221 1920663
-1.2468182 1.0228693 1.3050729 1920664
-1.2458233 1.0222051 1.3166555 1920665
0.93394578 -2.6608341 1.112885 1920739
0.93274254 -2.6594615 1.105655 1920740
0.92712659 -2.6505299 1.1006553 1920741
0.93077618 -2.6574705 1.0909675 1920742
0.93342125 -2.6626968 1.0817144 1920743
0.93117505 -2.6595387 1.074998 1920744
0.9250313 -2.6496894 1.0704174 1920745
0.93003803 -2.6589794 1.0597655 1920746
0.9316206 -2.6623971 1.0509183 1920747
0.92931163 -2.6591308 1.0442411 1920748
0.93374497 -2.6674576 1.0336616 1920749
0.90394241 -2.6168904 1.0432084 1920750
0.88047075 -2.5771728 1.0495012 1920751
-1.2668339 1.0272096 1.2929803 1921384
-1.2668867 1.0283067 1.3044689 1921385
-1.2643362 1.0250944 1.3163482 1921386
0.94290912 -2.6588352 1.1118509 1921460
0.93922478 -2.6532915 1.1058233 1921461
0.94341809 -2.6610768 1.0958915 1921462
0.93429047 -2.6463146 1.0926619 1921463
0.94089651 -2.6581941 1.0813966 1921464
0.94059294 -2.6583753 1.073642 1921465
0.93929052 -2.6568642 1.0664072 1921466
0.93601525 -2.6520059 1.0602537 1921467
0.94103295 -2.6612213 1.0495119 1921468
0.93236119 -2.6471989 1.0464145 1921469
0.92028958 -2.6273875 1.0454172 1921470
0.91455549 -2.6183317 1.0409086 1921471
0.88747174 -2.572957 1.049206 1921472
0.92003787 -2.6290412 1.0218787 1921473
-1.2894508 1.0368414 1.2918813 1922105
-1.2879441 1.0353967 1.3037012 1922106
-1.2853707 1.0322052 1.3156531 1922107
0.93719101 -2.654355 1.1136351 1922181
0.93499839 -2.6513186 1.1069081 1922182
0.93623382 -2.6541035 1.0984763 1922183
0.93548262 -2.6535163 1.0910155 1922184
0.94304603 -2.6670675 1.0792105 1922185
0.94175786 -2.6655753 1.0719376 1922186
0.94094229 -2.6648874 1.0644091 1922187
0.9430362 -2.6691549 1.0552721 1922188
0.93925828 -2.6634243 1.0493532 1922189
0.93498576 -2.6568468 1.0437616 1922190
0.92633718 -2.6428018 1.0407559 1922191
0.92108965 -2.6345472 1.0358905 1922192
0.8853541 -2.5742431 1.0493121 1922193
0.90817112 -2.6138797 1.0278541 1922194
-1.2924548 1.0501596 1.2905689 1922825
-1.2893964 1.0461644 1.3026899 1922826
-1.2883863 1.0455271 1.3144542 1922827
0.93389028 -2.6540534 1.114177 1922901
0.93268704 -2.652688 1.1069726 1922902
0.9295069 -2.6479523 1.100764 1922903
0.92827475 -2.6465364 1.0935924 1922904
0.93338102 -2.6559372 1.0831078 1922905
0.92820317 -2.6477892 1.0779752 1922906
0.93179274 -2.6546121 1.0681684 1922907
0.92951286 -2.6514115 1.0615033 1922908
0.93256348 -2.6573241 1.0518686 1922909
0.93170452 -2.6565554 1.044379 1922910
0.93518573 -2.6632164 1.0343641 1922911
0.90769821 -2.6168537 1.0425045 1922912
0.91020203 -2.6218302 1.0331866 1922913
0.90737796 -2.6176808 1.027036 1922914
-1.2897512 1.0541389 1.2902223 1923543
-1.2892876 1.0543987 1.3019444 1923544
-1.2893149 1.0554667 1.3135848 1923545
0.9315834 -2.6577053 1.1138531 1923619
0.93038344 -2.6563356 1.10664 1923620
0.92574942 -2.6490796 1.1011631 1923621
0.92306012 -2.6451528 1.0947489 1923622
0.92814922 -2.6545689 1.0842822 1923623
0.92834216 -2.6555912 1.07631 1923624
0.9319123 -2.662416 1.0664746 1923625
0.92915165 -2.6583712 1.0600474 1923626
0.92686337 -2.6551361 1.0533822 1923627
0.92552859 -2.6535392 1.0461898 1923628
0.92321342 -2.6502554 1.0395676 1923629
0.9011448 -2.6129634 1.0446457 1923630
0.89547276 -2.6038778 1.0402689 1923631
0.90227681 -2.6162841 1.0283561 1923632
-1.2945942 1.0744711 1.2882221 1924263
-1.2931023 1.0730318 1.3001945 1924264
-1.2895228 1.0681323 1.3124545 1924265
0.92376626 -2.6544917 1.1157342 1924339
0.92695546 -2.6606781 1.1063672 1924340
0.92234504 -2.6534057 1.1008807 1924341
0.92112374 -2.6519816 1.0937042 1924342
0.92521346 -2.6597359 1.0837282 1924343
0.92008454 -2.6515601 1.0785974 1924344
0.92219335 -2.6558981 1.0695875 1924345
0.92186588 -2.6560252 1.0618666 1924346
0.91959471 -2.6527882 1.0552258 1924347
0.92019361 -2.6545219 1.0469532 1924348
0.92652714 -2.6661983 1.035291 1924349
0.89738083 -2.616363 1.0445654 1924350
0.89365101 -2.6105762 1.0390278 1924351
0.88561845 -2.5973165 1.0361778 1924352
-1.2916497 1.0866309 1.2870582 1924979
-1.2901663 1.0851905 1.2990701 1924980
-1.2907063 1.0871242 1.3107505 1924981
0.91834223 -2.655453 1.1164551 1925055
0.91425896 -2.6490371 1.1107339 1925056
0.9178977 -2.6560457 1.1011248 1925057
0.92005956 -2.6604927 1.0921917 1925058
0.91641605 -2.6548395 1.086269 1925059
0.9151687 -2.6533556 1.0791001 1925060
0.91534632 -2.6543546 1.071149 1925061
0.9159832 -2.6561565 1.0629137 1925062
0.92090636 -2.6654377 1.0522062 1925063
0.9181478 -2.661325 1.0458161 1925064
0.91346979 -2.6538587 1.0405815 1925065
0.90211874 -2.6347311 1.0393972 1925066
0.88935906 -2.6131246 1.0392636 1925067
0.86855257 -2.5774293 1.0443174 1925068
0.86106706 -2.5650024 1.0414063 1925069
-1.2918435 1.1050429 1.2971998 1925696
-1.2857543 1.095847 1.309967 1925697
0.91542989 -2.6560402 1.116749 1925771
0.91377109 -2.6538267 1.1098198 1925772
0.91450644 -2.6557922 1.1016737 1925773
0.91089219 -2.6501632 1.0957594 1925774
0.91735399 -2.6621399 1.0845393 1925775
0.91514629 -2.6589706 1.0778593 1925776
0.914841 -2.6591275 1.0701506 1925777
0.91069311 -2.6525609 1.0645751 1925778
0.90940219 -2.6509924 1.0574275 1925779
0.91524285 -2.6619174 1.0461478 1925780
0.91390938 -2.6602805 1.0389552 1925781
0.89736342 -2.6319661 1.0408733 1925782
0.89744663 -2.6328013 1.0329669 1925783
0.86059189 -2.5687997 1.0478809 1925784
0.85597336 -2.5613508 1.0432373 1925785
-1.2932912 1.1169102 1.2961129 1926414
-1.2917943 1.1154273 1.3082296 1926415
0.91513139 -2.6607103 1.1159422 1926489
0.91058809 -2.6534357 1.1104497 1926490
0.91180325 -2.6562459 1.1020657 1926491
0.91203654 -2.6573391 1.0941489 1926492
0.91129214 -2.6567197 1.0867249 1926493
0.91148716 -2.6577499 1.0787823 1926494
0.91022998 -2.6562326 1.0716131 1926495
0.90895724 -2.6546881 1.0644523 1926496
0.90766913 -2.6531167 1.0573003 1926497
0.91159254 -2.6607082 1.0471213 1926498
0.90219998 -2.6448848 1.0447038 1926499
0.90465927 -2.6499062 1.035329 1926500
0.885813 -2.617419 1.0388801 1926501
0.86606663 -2.5833158 1.0433346 1926502
-1.2971809 1.1319721 1.2946771 1927133
-1.2936608 1.1270586 1.3071703 1927134
0.90770054 -2.6539938 1.110814 1927209
0.90699708 -2.6534371 1.1034203 1927210
0.90818971 -2.6562181 1.0950233 1927211
0.91222471 -2.6640084 1.0850627 1927212
0.91003031 -2.6608329 1.0783863 1927213
0.90734714 -2.6567945 1.0719985 1927214
0.90988135 -2.6619542 1.0627016 1927215
0.90906632 -2.661211 1.0552483 1927216
0.91155076 -2.6662929 1.0458641 1927217
0.91022331 -2.6646497 1.0386626 1927218
0.90463018 -2.6554694 1.0340289 1927219
0.87923527 -2.6112773 1.0415946 1927220
0.85720098 -2.5729873 1.0475467 1927221
-1.298139 1.142962 1.293646 1927854
-1.2991776 1.1457809 1.3054826 1927855
0.90652514 -2.6578417 1.1177193 1927929
0.90297186 -2.6522441 1.1117709 1927930
0.90943259 -2.6643412 1.1006976 1927931
0.90584773 -2.6586883 1.0947607 1927932
0.907013 -2.6614347 1.0863254 1927933
0.90387958 -2.6565769 1.0801879 1927934
0.90263414 -2.6550589 1.0730394 1927935
0.90137345 -2.6535137 1.0658994 1927936
0.91097391 -2.6712198 1.0525193 1927937
0.91391414 -2.677134 1.0428175 1927938
0.9050411 -2.6620963 1.0400507 1927939
0.90653026 -2.6654391 1.0311739 1927940
0.87088042 -2.6028311 1.0450412 1927941
0.86159569 -2.5870082 1.0431418 1927942
0.84295952 -2.554548 1.0473282 1927943
0.88279229 -2.6260469 1.0142176 1927944
-1.2982965 1.1544029 1.2926427 1928574
-1.2922812 1.1451812 1.3056129 1928575
0.89773571 -2.6496673 1.1131276 1928650
0.90037256 -2.6550257 1.1040473 1928651
0.89111096 -2.6392529 1.1011713 1928652
0.89418662 -2.6453943 1.0918225 1928653
0.89818108 -2.6531768 1.0818882 1928654
0.89836264 -2.6541846 1.0739751 1928655
0.89333278 -2.6459191 1.0689867 1928656
0.9005515 -2.6594591 1.0570124 1928657
0.90067071 -2.6603651 1.0490329 1928658
0.89748234 -2.6553776 1.0429971 1928659
0.89662933 -2.6545517 1.035583 1928660
0.86345786 -2.5960619 1.0480648 1928661
0.87430978 -2.6161044 1.0336277 1928662
0.85058099 -2.5744064 1.0409368 1928663
0.87954336 -2.6268229 1.014661 1928664
-1.3019087 1.1718946 1.2909932 1929295
-1.3009332 1.1712819 1.3032589 1929296
0.89363861 -2.6531291 1.1131455 1929371
0.89436841 -2.6551116 1.1050465 1929372
0.89413291 -2.6553695 1.0974225 1929373
0.89717984 -2.6615069 1.0880072 1929374
0.89313734 -2.6549501 1.082407 1929375
0.89848894 -2.6652274 1.0716046 1929376
0.8906644 -2.6518867 1.0681762 1929377
0.8889367 -2.6494734 1.061345 1929378
0.89000225 -2.6520736 1.0528771 1929379
0.89338034 -2.6588311 1.0429771 1929380
0.89346415 -2.6596773 1.0349905 1929381
0.86699486 -2.6127918 1.0434151 1929382
0.84338385 -2.571003 1.0505452 1929383
0.86483377 -2.6102598 1.0293213 1929384
-1.3000215 1.1867993 1.2895933 1930015
-1.3000495 1.1879146 1.3017552 1930016
0.89326018 -2.6645062 1.1110107 1930091
0.89397848 -2.6664829 1.1028696 1930092
0.88482285 -2.6506407 1.0999582 1930093
0.88504589 -2.651721 1.0921087 1930094
0.88618523 -2.6544592 1.0837249 1930095
0.88683546 -2.6563175 1.07557 1930096
0.89259428 -2.6674175 1.0644519 1930097
0.88667619 -2.6574028 1.059999 1930098
0.89191407 -2.6675739 1.0490268 1930099
0.8887623 -2.6625626 1.0429806 1930100
0.86382556 -2.6180751 1.0503181 1930101
0.87780643 -2.6440964 1.0338962 1930102
0.83492458 -2.5670125 1.0531492 1930103
0.85901076 -2.6113746 1.0301877 1930104
-1.2911948 1.1918553 1.2891383 1930733
-1.2897353 1.1903762 1.301535 1930734
0.88074714 -2.6526086 1.1153021 1930809
0.88614529 -2.663094 1.104774 1930810
0.88171178 -2.6557124 1.0993885 1930811
0.88053393 -2.654248 1.0922894 1930812
0.88445765 -2.6620698 1.0823544 1930813
0.88324219 -2.6605413 1.0752256 1930814
0.88386643 -2.662365 1.0670373 1930815
0.88817352 -2.6709049 1.0566547 1930816
0.88459009 -2.6650648 1.0508614 1930817
0.8828451 -2.6625748 1.0440009 1930818
0.88200796 -2.6617415 1.0365901 1930819
0.84298056 -2.5911603 1.0530775 1930820
0.86972392 -2.6406906 1.0284896 1930821
0.85235459 -2.6096272 1.0318429 1930822
-1.290289 1.2084311 1.2876117 1931453
-1.2858799 1.2017535 1.3005401 1931454
0.87974924 -2.6564548 1.1146275 1931529
0.87953913 -2.6567461 1.1070377 1931530
0.88070691 -2.6595545 1.0986885 1931531
0.8823173 -2.6631753 1.0900509 1931532
0.88622314 -2.6709952 1.0800784 1931533
0.88546777 -2.6703029 1.0726488 1931534
0.88330895 -2.6670446 1.0660201 1931535
0.87698358 -2.6561611 1.0618571 1931536
0.88033766 -2.6629882 1.0520133 1931537
0.88228154 -2.6672409 1.0429331 1931538
0.88144386 -2.6664021 1.0355057 1931539
0.87921393 -2.6630118 1.0289426 1931540
0.85270864 -2.6150928 1.0378841 1931541
0.8185057 -2.5530026 1.0523288 1931542
0.80858248 -2.5354319 1.0514623 1931543
-1.2819102 1.2029098 1.2881929 1932174
-1.2814465 1.2031597 1.300455 1932175
0.87753326 -2.6576953 1.1147468 1932250
0.87546557 -2.6545835 1.1081401 1932251
0.87709665 -2.658247 1.0995581 1932252
0.8759256 -2.6567788 1.0924587 1932253
0.87751448 -2.6603723 1.0838169 1932254
0.87630951 -2.6588442 1.0767088 1932255
0.87370652 -2.6547501 1.0704098 1932256
0.87431526 -2.6565521 1.062247 1932257
0.87903929 -2.6659188 1.0515822 1932258
0.87730581 -2.663425 1.0447295 1932259
0.8732686 -2.6566935 1.0393124 1932260
0.86190921 -2.6364834 1.0385594 1932261
0.83961284 -2.5961204 1.0450069 1932262
0.82420993 -2.5684166 1.0474048 1932263
0.81885058 -2.5591958 1.0434631 1932264
-1.2760725 1.2016191 1.2883289 1932892
-1.2746296 1.2001305 1.3007307 1932893
0.86970723 -2.6520517 1.1169957 1932968
0.86673051 -2.6472378 1.1109182 1932969
0.86974663 -2.6534679 1.101633 1932970
0.87365764 -2.6613557 1.0917714 1932971
0.87477678 -2.6641011 1.0833755 1932972
0.87357599 -2.6625679 1.0762588 1932973
0.870525 -2.6576173 1.0702176 1932974
0.87846047 -2.6729646 1.0577149 1932975
0.87949067 -2.6755621 1.0491809 1932976
0.87364864 -2.665453 1.0448046 1932977
0.87236583 -2.6637728 1.0376855 1932978
0.86424112 -2.6494253 1.0348916 1932979
0.83067977 -2.58795 1.0485789 1932980
0.84166688 -2.6089728 1.0338521 1932981
0.82361782 -2.5761824 1.0381247 1932982
-1.2730834 1.212417 1.2996776 1933614
0.87271017 -2.6681406 1.1133475 1933689
0.8646822 -2.6539166 1.1099032 1933690
0.86492336 -2.6550364 1.1020966 1933691
0.8646875 -2.6552725 1.0945266 1933692
0.86809576 -2.6622839 1.084882 1933693
0.86827636 -2.6633012 1.0769986 1933694
0.86843807 -2.6642854 1.0690984 1933695
0.86448061 -2.6576047 1.0636194 1933696
0.86324632 -2.6559906 1.0565491 1933697
0.86653823 -2.6628098 1.046695 1933698
0.86980063 -2.6695819 1.0367664 1933699
0.86443418 -2.6602695 1.0322278 1933700
0.8441571 -2.6231275 1.0374025 1933701
0.81987125 -2.5784671 1.0456002 1933702
-1.2585574 1.2045151 1.3004034 1934334
0.86573666 -2.6653974 1.1152189 1934409
0.86461556 -2.6639764 1.1081154 1934410
0.86530602 -2.6659441 1.1000214 1934411
0.86460876 -2.6653178 1.092663 1934412
0.86708176 -2.6706281 1.083498 1934413
0.86634767 -2.6699376 1.0761098 1934414
0.87013495 -2.677721 1.0660568 1934415
0.8639251 -2.6667693 1.061875 1934416
0.86133504 -2.6625988 1.0555953 1934417
0.86460513 -2.6694241 1.0457218 1934418
0.86378843 -2.6685839 1.0383228 1934419
0.84900349 -2.6415043 1.0398345 1934420
0.85312051 -2.6499259 1.0293592 1934421
0.81504261 -2.5790148 1.0465943 1934422
0.85319632 -2.6514504 1.0135351 1934423
-1.2504611 1.2077874 1.3000145 1935052
0.85741699 -2.6621819 1.1170505 1935127
0.85767061 -2.663332 1.1092405 1935128
0.85609162 -2.661027 1.102411 1935129
0.84997141 -2.6501493 1.0981354 1935130
0.85651165 -2.6631715 1.0867379 1935131
0.86030519 -2.6710181 1.0767783 1935132
0.85911071 -2.669445 1.0696647 1935133
0.85520154 -2.6627381 1.0641831 1935134
0.85263449 -2.6585655 1.0579363 1935135
0.85768306 -2.6688066 1.0469812 1935136
0.8568747 -2.6679668 1.0395987 1935137
0.85113269 -2.6577797 1.0353774 1935138
0.81638086 -2.592591 1.050195 1935139
0.8276211 -2.6145694 1.0351954 1935140
0.79121339 -2.5461581 1.0520512 1935141
0.83039409 -2.6211822 1.0178993 1935142
-1.2415122 1.2126888 1.2996328 1935772
0.84928328 -2.6588597 1.1189824 1935847
0.85179591 -2.6643071 1.1099764 1935848
0.85563517 -2.6722848 1.1001624 1935849
0.85404682 -2.66994 1.0933067 1935850
0.85738641 -2.6769793 1.0836316 1935851
0.85441893 -2.6720095 1.0775487 1935852
0.85547268 -2.6747019 1.0691122 1935853
0.85203409 -2.6688311 1.0633463 1935854
0.85126644 -2.6680524 1.0559834 1935855
0.85226554 -2.6706471 1.0475056 1935856
0.85457754 -2.6757534 1.0381461 1935857
0.84220624 -2.6528096 1.0382054 1935858
0.82232022 -2.6154797 1.0434355 1935859
0.8210749 -2.6137681 1.0366135 1935860
0.80125719 -2.5765171 1.0423868 1935861
0.82912934 -2.6305327 1.0157057 1935862
-1.2294502 1.2112887 1.2997687 1936492
0.84439808 -2.6592658 1.1196638 1936567
0.84151274 -2.6544096 1.1136073 1936568
0.84220392 -2.6564012 1.1055982 1936569
0.84108561 -2.654928 1.0985771 1936570
0.84308082 -2.6594245 1.0897603 1936571
0.84683681 -2.6673045 1.0798451 1936572
0.84566343 -2.6657331 1.0727729 1936573
0.84492052 -2.6649883 1.0654389 1936574
0.84371781 -2.6633611 1.0583797 1936575
0.84826392 -2.6727822 1.0477061 1936576
0.84702337 -2.6710875 1.0406103 1936577
0.84179211 -2.661716 1.0361069 1936578
0.84670478 -2.6718602 1.0249898 1936579
0.8150354 -2.6115758 1.038283 1936580
0.82169884 -2.625082 1.0260988 1936581
-1.2215824 1.213271 1.2995961 1937212
0.84055054 -2.6591191 1.1202871 1937287
0.83946615 -2.6576998 1.1132586 1937288
0.8383677 -2.6562531 1.1062379 1937289
0.84215838 -2.6642237 1.0964378 1937290
0.85037059 -2.6807232 1.0839769 1937291
0.84120905 -2.6637449 1.0815582 1937292
0.84093177 -2.6638882 1.073979 1937293
0.83975166 -2.6622908 1.0669318 1937294
0.84032655 -2.6640816 1.0587957 1937295
0.83116728 -2.6470737 1.056764 1937296
0.83656734 -2.6581867 1.04556 1937297
0.82388771 -2.6343565 1.0460052 1937298
0.82265574 -2.6326487 1.039107 1937299
0.79421741 -2.5782895 1.050527 1937300
0.81314498 -2.6155894 1.0301296 1937301
-1.2173324 1.2178043 1.2991927 1937930
0.83980441 -2.6650078 1.1192522 1938005
0.83159643 -2.649802 1.1161201 1938006
0.83628988 -2.6595476 1.1059076 1938007
0.83695632 -2.6615078 1.097873 1938008
0.83494347 -2.658282 1.0913576 1938009
0.84442729 -2.6773322 1.0780625 1938010
0.83972234 -2.6688945 1.0730836 1938011
0.83986771 -2.669858 1.0652092 1938012
0.83514923 -2.6613858 1.0603355 1938013
0.84274226 -2.6768086 1.0477395 1938014
0.84019363 -2.6725492 1.041487 1938015
0.84114188 -2.6750829 1.0329738 1938016
0.79480851 -2.585696 1.0558616 1938017
0.78705782 -2.5712731 1.053638 1938018
0.77626401 -2.550916 1.0536439 1938019
0.7707147 -2.5407515 1.0501994 1938020
-1.2064795 1.2100322 1.2998904 1938651
0.82906359 -2.6588249 1.1146445 1938727
0.83018672 -2.6616859 1.1063955 1938728
0.82512158 -2.6524529 1.1016561 1938729
0.83061171 -2.6638582 1.090824 1938730
0.83035803 -2.6640356 1.0832741 1938731
0.8300876 -2.6641817 1.0757157 1938732
0.83111393 -2.6668696 1.0673391 1938733
0.83605337 -2.6772299 1.0564615 1938734
0.83441275 -2.6747007 1.0496507 1938735
0.83145249 -2.6695826 1.043705 1938736
0.83109379 -2.6695664 1.0360814 1938737
0.8324551 -2.6729288 1.0272868 1938738
0.79521376 -2.6004689 1.0447129 1938739
0.77798891 -2.5672784 1.0490746 1938740
0.77506196 -2.5621698 1.0437413 1938741
-1.1964016 1.2153347 1.2994354 1939371
0.82332522 -2.6618323 1.1148916 1939447
0.8222509 -2.660378 1.1078869 1939448
0.82597071 -2.6683905 1.098107 1939449
0.82442504 -2.6660094 1.0913289 1939450
0.82286686 -2.6636028 1.0845674 1939451
0.82260138 -2.6637516 1.0770258 1939452
0.82709748 -2.6733224 1.0665076 1939453
0.83069426 -2.6811235 1.0564369 1939454
0.82906598 -2.678587 1.0496215 1939455
0.82569611 -2.6725988 1.0439529 1939456
0.82361412 -2.6691597 1.0374756 1939457
0.79136473 -2.6058948 1.0513767 1939458
0.76995951 -2.564086 1.0585145 1939459
0.76535487 -2.5555875 1.0543884 1939460
-1.1824934 1.2135922 1.2996145 1940091
0.81606787 -2.6590297 1.1166687 1940167
0.81500429 -2.6575775 1.1096889 1940168
0.81349266 -2.6552334 1.1029698 1940169
0.81803995 -2.6649547 1.0926682 1940170
0.81692731 -2.6634097 1.0856618 1940171
0.81580096 -2.6618373 1.0786636 1940172
0.82113534 -2.6731496 1.0676287 1940173
0.81523091 -2.6620498 1.0635971 1940174
0.81879336 -2.6698387 1.0535492 1940175
0.82103789 -2.6750047 1.0442647 1940176
0.81982678 -2.6732724 1.0372137 1940177
0.80404705 -2.6424174 1.0400523 1940178
0.79044026 -2.6158803 1.0417098 1940179
0.76619792 -2.5680385 1.0510912 1940180
0.82080668 -2.6780038 1.00486 1940181
-1.1744394 1.2177767 1.2992036 1940812
0.81452477 -2.6630933 1.1160506 1940888
0.81259698 -2.6599035 1.109555 1940889
0.81455153 -2.6644788 1.1008092 1940890
0.81475544 -2.665556 1.0930403 1940891
0.81106025 -2.658828 1.087605 1940892
0.81252676 -2.6624358 1.0790437 1940893
0.81268173 -2.6634197 1.0712491 1940894
0.81625283 -2.6712561 1.0612476 1940895
0.81036705 -2.6601295 1.0572782 1940896
0.81346762 -2.6670306 1.0474842 1940897
0.80799812 -2.6567307 1.0433425 1940898
0.8055141 -2.6524205 1.0372598 1940899
0.78003532 -2.6018896 1.0471247 1940900
0.77119935 -2.584779 1.0458182 1940901
0.81370199 -2.6709409 1.0080059 1940902
-1.1698661 1.2212495 1.2989032 1941533
0.81284875 -2.6671813 1.1153249 1941609
0.81178987 -2.6657188 1.1083194 1941610
0.81545663 -2.6737585 1.0985419 1941611
0.81092179 -2.665308 1.0935614 1941612
0.80982006 -2.6637609 1.0865672 1941613
0.80913359 -2.6630497 1.079316 1941614
0.81142944 -2.6683474 1.0701778 1941615
0.80942595 -2.6649861 1.0637186 1941616
0.81125265 -2.6693468 1.0547832 1941617
0.81220382 -2.6719468 1.0463625 1941618
0.80930597 -2.6667824 1.0404856 1941619
0.80767417 -2.6641712 1.03378 1941620
0.77084422 -2.5904517 1.0515484 1941621
0.78575391 -2.6212382 1.0335697 1941622
0.80693096 -2.6647294 1.0107393 1941623
0.80566519 -2.6628597 1.003756 1941624
-1.1597575 1.2141341 1.2996149 1942253
0.80474627 -2.6549842 1.1190789 1942329
0.80412984 -2.6544015 1.1118883 1942330
0.80478823 -2.6563904 1.1039389 1942331
0.80456948 -2.6566129 1.0964775 1942332
0.80347764 -2.6550748 1.0895296 1942333
0.80622321 -2.6612854 1.080202 1942334
0.80808872 -2.6657257 1.0713462 1942335
0.80523938 -2.6606419 1.0654509 1942336
0.8032338 -2.6572611 1.0590421 1942337
0.80886972 -2.6693382 1.0475813 1942338
0.80937654 -2.6710467 1.0394307 1942339
0.80477977 -2.6624236 1.0347413 1942340
0.78030163 -2.6135151 1.0439744 1942341
0.76982456 -2.5929408 1.0438154 1942342
0.7581026 -2.569824 1.0447571 1942343
0.79184508 -2.6389287 1.0127512 1942344
-1.1537255 1.2093792 1.3000411 1942974
0.80716097 -2.6635633 1.1171666 1943050
0.80525118 -2.6603682 1.1106828 1943051
0.80461746 -2.6597512 1.103466 1943052
0.80825233 -2.6677685 1.093681 1943053
0.80672711 -2.6653533 1.0869433 1943054
0.80732465 -2.6672347 1.0788963 1943055
0.80577165 -2.6647637 1.072171 1943056
0.80122697 -2.6562293 1.0673778 1943057
0.80092937 -2.6562989 1.0598825 1943058
0.80825233 -2.6718268 1.0473037 1943059
0.80325055 -2.6623611 1.0428649 1943060
0.80459064 -2.6657634 1.0341557 1943061
0.77804965 -2.6125388 1.0448425 1943062
0.77223039 -2.6013749 1.0414038 1943063
0.7815572 -2.6209962 1.0271643 1943064
0.80385005 -2.6670125 1.0032103 1943065
-1.1534685 1.2150989 1.2994262 1943695
0.80073792 -2.6548476 1.1198699 1943771
0.80183995 -2.6577406 1.1116943 1943772
0.8003543 -2.6553907 1.1049995 1943773
0.80398446 -2.6634178 1.0952399 1943774
0.80332011 -2.6627378 1.0880054 1943775
0.80477101 -2.6663537 1.0794449 1943776
0.80322301 -2.6638825 1.0727279 1943777
0.80081373 -2.6596599 1.0665749 1943778
0.80178672 -2.6623123 1.0582337 1943779
0.80697179 -2.6735375 1.04704 1943780
0.80282629 -2.6657846 1.0420245 1943781
0.80837929 -2.6777744 1.0303998 1943782
0.79915714 -2.6596775 1.0289574 1943783
0.7676695 -2.5961835 1.0435103 1943784
0.77655977 -2.6149676 1.0296031 1943785
0.79713017 -2.6576006 1.0069116 1943786
-1.1487039 1.2130524 1.2996428 1944416
0.79429048 -2.6472409 1.1223994 1944492
0.80052304 -2.6605766 1.1112871 1944493
0.80117399 -2.6625645 1.1033212 1944494
0.79839838 -2.657578 1.0973831 1944495
0.79901743 -2.6595042 1.0893995 1944496
0.79409689 -2.6501424 1.084837 1944497
0.79892737 -2.6606584 1.0741639 1944498
0.80287886 -2.6693923 1.0639288 1944499
0.80088347 -2.6659973 1.0574899 1944500
0.80098712 -2.666887 1.049667 1944501
0.80023074 -2.6660223 1.0424 1944502
0.7973569 -2.66083 1.0365851 1944503
0.77474451 -2.6152678 1.0446503 1944504
0.767699 -2.6015143 1.0421021 1944505
0.78115994 -2.6297266 1.0248452 1944506
0.80290788 -2.6749394 1.0011692 1944507
-1.1435066 1.2123265 1.2997172 1945135
0.79421097 -2.6526966 1.1212581 1945211
0.79317963 -2.6512473 1.1143451 1945212
0.79511219 -2.6558545 1.1056726 1945213
0.79532379 -2.6569493 1.0979755 1945214
0.79551822 -2.658011 1.0902612 1945215
0.79484862 -2.6573074 1.08306 1945216
0.79247361 -2.6531129 1.0769358 1945217
0.7934655 -2.6558125 1.0686574 1945218
0.79233068 -2.6541579 1.0617341 1945219
0.79959518 -2.6697233 1.0491827 1945220
0.79464048 -2.6602418 1.0447675 1945221
0.79765028 -2.6670971 1.0349228 1945222
0.77426749 -2.6197743 1.0435489 1945223
0.77559656 -2.6231678 1.0350126 1945224
0.77148241 -2.61538 1.0303706 1945225
0.79359186 -2.6615033 1.0064652 1945226
0.79482758 -2.6647351 0.99765402 1945227
-1.1369368 1.2089475 1.3000382 1945856
0.78909802 -2.6574214 1.1210332 1945932
0.78976351 -2.6594532 1.1131189 1945933
0.79251921 -2.6658051 1.1039172 1945934
0.78935564 -2.6599331 1.0982385 1945935
0.78912807 -2.6601267 1.090785 1945936
0.79056364 -2.6637616 1.0822632 1945937
0.78862542 -2.6604204 1.0758523 1945938
0.78709519 -2.6579223 1.0691931 1945939
0.79265434 -2.6701064 1.0578336 1945940
0.79192281 -2.6692684 1.0505741 1945941
0.7907604 -2.6675382 1.0436009 1945942
0.77628475 -2.6381946 1.0459181 1945943
0.75146866 -2.5873678 1.0558666 1945944
0.76358491 -2.6131685 1.0397439 1945945
0.75662279 -2.5993686 1.0372803 1945946
0.77360678 -2.6353185 1.0171547 1945947
0.78639281 -2.6625769 0.99978185 1945948
-1.1254851 1.2124354 1.2997371 1946576
0.77957374 -2.6569083 1.115128 1946653
0.77980143 -2.6580422 1.1074697 1946654
0.775846 -2.6504211 1.1023569 1946655
0.7789585 -2.6575975 1.0928824 1946656
0.77913767 -2.6586356 1.0851847 1946657
0.7792998 -2.6596406 1.0774703 1946658
0.78192925 -2.6658225 1.0681002 1946659
0.78040004 -2.6632857 1.0614365 1946660
0.78339845 -2.6702528 1.0516933 1946661
0.77854252 -2.6607323 1.0473034 1946662
0.78067791 -2.6658945 1.0380701 1946663
0.75651205 -2.6157727 1.0475974 1946664
0.7578246 -2.6191914 1.0391121 1946665
0.73047596 -2.5623062 1.0517509 1946666
0.78366572 -2.6749179 1.0045483 1946667
-1.1091909 1.2115939 1.2998511 1947296
0.77552968 -2.6619122 1.122044 1947372
0.77245331 -2.6560707 1.1163682 1947373
0.77599329 -2.6642067 1.1067113 1947374
0.77000046 -2.6521978 1.1028612 1947375
0.77267611 -2.6585143 1.0936521 1947376
0.77285516 -2.659555 1.0859631 1947377
0.77301747 -2.6605625 1.0782571 1947378
0.77152008 -2.6580575 1.0716262 1947379
0.77780205 -2.6720364 1.0597459 1947380
0.77913445 -2.6755364 1.0510999 1947381
0.77635878 -2.6703281 1.0452681 1947382
0.77520764 -2.6685638 1.0383198 1947383
0.7642684 -2.6460187 1.0384341 1947384
0.74969089 -2.6157262 1.04144 1947385
0.72215986 -2.5578797 1.0544006 1947386
0.77047402 -2.6612327 1.01062 1947387
0.77128053 -2.6636329 1.0021664 1947388
-1.0999948 1.2171903 1.2993519 1948017
0.77694643 -2.661222 1.1219848 1948093
0.77303267 -2.6536329 1.1168048 1948094
0.77492207 -2.6582701 1.108164 1948095
0.77306217 -2.6550066 1.1017777 1948096
0.77077842 -2.6508474 1.0956767 1948097
0.77302748 -2.6562531 1.0866981 1948098
0.77071863 -2.6520405 1.0806175 1948099
0.77292824 -2.6573713 1.0715673 1948100
0.77922332 -2.6713438 1.0596865 1948101
0.77276415 -2.6583607 1.0563869 1948102
0.77572924 -2.6653049 1.0466367 1948103
0.77457911 -2.663547 1.0397094 1948104
0.75423306 -2.6211395 1.0466058 1948105
0.74901605 -2.6107464 1.0428736 1948106
0.73729324 -2.5865552 1.0440698 1948107
0.76944375 -2.6553819 1.0123997 1948108
0.77228272 -2.6620872 1.0024183 1948109
-1.1038213 1.2186567 1.2992153 1948737
0.77400696 -2.6520796 1.1170309 1948814
0.77423823 -2.6532204 1.1094021 1948815
0.77154756 -2.6482174 1.1035495 1948816
0.7684347 -2.642323 1.0979989 1948817
0.77648675 -2.6599305 1.085353 1948818
0.7754091 -2.6583257 1.0784451 1948819
0.77596819 -2.6601701 1.0704534 1948820
0.77156794 -2.651562 1.0657636 1948821
0.77662045 -2.6628857 1.0546768 1948822
0.77876681 -2.6680889 1.0454724 1948823
0.76982725 -2.6498938 1.0440344 1948824
0.78053313 -2.6731787 1.0286543 1948825
0.74831516 -2.6057792 1.0443439 1948826
0.73860943 -2.5859139 1.0440501 1948827
0.77286077 -2.6590114 1.0108461 1948828
0.77407753 -2.6622705 1.0020859 1948829
-1.1041248 1.2129686 1.299709 1949457
0.77270138 -2.6632798 1.1221879 1949533
0.77128917 -2.660938 1.115521 1949534
0.76986533 -2.6585708 1.1088701 1949535
0.76678354 -2.6526797 1.10326 1949536
0.76246244 -2.6441498 1.0984808 1949537
0.76716584 -2.6548083 1.087958 1949538
0.76692235 -2.6549513 1.0805501 1949539
0.76748157 -2.6568048 1.072588 1949540
0.76924777 -2.6612325 1.0637696 1949541
0.76732266 -2.6578 1.0574327 1949542
0.76782942 -2.6595502 1.0494086 1949543
0.76669276 -2.6577985 1.0425186 1949544
0.76392084 -2.6525576 1.0368129 1949545
0.73806226 -2.5980248 1.0481344 1949546
0.74542165 -2.6143935 1.0351976 1949547
0.76080805 -2.6479332 1.0159698 1949548
0.76444292 -2.6563818 1.0054139 1949549
-1.0941676 1.2178006 1.2992932 1950176
0.75407785 -2.6487718 1.1205713 1950253
0.75674993 -2.6551957 1.1114836 1950254
0.75899273 -2.6606984 1.1025835 1950255
0.75432479 -2.6512589 1.0980451 1950256
0.75451028 -2.6523156 1.0904193 1950257
0.75589114 -2.6559627 1.0819709 1950258
0.75483215 -2.6543298 1.0751166 1950259
0.75537103 -2.6561596 1.0671632 1950260
0.75549012 -2.6570826 1.0594661 1950261
0.75519145 -2.6571016 1.0520378 1950262
0.75367576 -2.6544814 1.04547 1950263
0.75374848 -2.6553092 1.0377452 1950264
0.72665834 -2.5971358 1.0502518 1950265
0.71080512 -2.5633299 1.0548549 1950266
0.70175499 -2.5442851 1.0545713 1950267
0.73719496 -2.6220031 1.0197188 1950268
0.75306857 -2.6572142 0.99951661 1950269
-1.0726535 1.2159395 1.299507 1950894
0.74440408 -2.6511874 1.1214267 1950971
0.74142843 -2.6452973 1.1158687 1950972
0.74325043 -2.6499491 1.107293 1950973
0.74505156 -2.6545608 1.0986661 1950974
0.7420426 -2.6485949 1.0931569 1950975
0.74301213 -2.6513827 1.0850155 1950976
0.74316746 -2.6523812 1.0773852 1950977
0.74330652 -2.6533463 1.0697381 1950978
0.74382591 -2.6551523 1.0617937 1950979
0.74591112 -2.6604147 1.0526844 1950980
0.74481183 -2.6586576 1.0458307 1950981
0.73817712 -2.6446819 1.0430932 1950982
0.73233694 -2.6324494 1.0398865 1950983
0.7080242 -2.5793936 1.0509682 1950984
0.69555473 -2.5524683 1.0533741 1950985
0.72385359 -2.6156788 1.0237902 1950986
0.74773276 -2.669172 0.99704963 1950987
0.74770033 -2.6697874 0.98920375 1950988
-1.0576887 1.2251816 1.298696 1951615
0.73552656 -2.6446505 1.1242028 1951692
0.73456895 -2.6431708 1.1174296 1951693
0.73836672 -2.6522412 1.1075983 1951694
0.73023731 -2.6348479 1.1054645 1951695
0.73281157 -2.6412089 1.0963647 1951696
0.74010766 -2.658067 1.0839803 1951697
0.73946905 -2.6573062 1.0768737 1951698
0.73566371 -2.6495047 1.071979 1951699
0.73460978 -2.6478183 1.0651869 1951700
0.73786503 -2.6557231 1.0552698 1951701
0.73599517 -2.6522243 1.0490273 1951702
0.73607326 -2.6530638 1.0413444 1951703
0.71972036 -2.6172833 1.0461352 1951704
0.71355259 -2.6041827 1.04342 1951705
0.71479052 -2.6075933 1.0350137 1951706
0.73505682 -2.6534803 1.011385 1951707
0.73815978 -2.6610858 1.0011249 1951708
0.73697436 -2.6591194 0.99428296 1951709
-1.0472047 1.2256413 1.2986158 1952336
0.73237389 -2.6516502 1.1159 1952414
0.73022503 -2.6474853 1.1098707 1952415
0.72846127 -2.6441805 1.1036148 1952416
0.72983176 -2.6479003 1.0952737 1952417
0.73510617 -2.6603804 1.0842105 1952418
0.73447263 -2.6596172 1.0771037 1952419
0.73382568 -2.6588249 1.069997 1952420
0.73082274 -2.6527424 1.0645735 1952421
0.73327112 -2.6589041 1.0552146 1952422
0.73024786 -2.6527734 1.0498339 1952423
0.72760767 -2.6475003 1.0442109 1952424
0.71991962 -2.6308661 1.0424944 1952425
0.7033394 -2.5942011 1.0478609 1952426
0.67907435 -2.5401964 1.05968 1952427
0.67493838 -2.5314968 1.0559014 1952428
0.72893929 -2.6538455 1.0048069 1952429
0.73084539 -2.6588216 0.99546611 1952430
0.73157716 -2.6611547 0.98703563 1952431
0.72979367 -2.6549542 1.1154578 1953135
0.72922343 -2.6543167 1.1083986 1953136
0.72315913 -2.6412909 1.1049716 1953137
0.72530711 -2.6467822 1.0961243 1953138
0.72548205 -2.6478264 1.0885574 1953139
0.72408265 -2.645318 1.0820618 1953140
0.7250067 -2.6480579 1.0739251 1953141
0.72513556 -2.6490045 1.0663161 1953142
0.72835034 -2.6569319 1.0564132 1953143
0.72573286 -2.6516736 1.0507599 1953144
0.72388148 -2.6481462 1.0445629 1953145
0.70813489 -2.613152 1.0490903 1953146
0.71206504 -2.6227045 1.0385745 1953147
0.67945188 -2.5494399 1.0569822 1953148
0.67878473 -2.5485499 1.0503788 1953149
0.72597575 -2.6562366 1.0045521 1953150
0.73016453 -2.6664219 0.99330002 1953151
0.72821671 -2.662683 0.98709512 1953152
0.71025586 -2.6172578 1.1193235 1953853
0.71282154 -2.6236989 1.1103687 1953854
0.71419591 -2.6274488 1.1021372 1953855
0.70893961 -2.6161754 1.0984175 1953856
0.72115856 -2.6445174 1.0825537 1953857
0.71936697 -2.6411045 1.0763595 1953858
0.71563095 -2.6332767 1.0715929 1953859
0.71459681 -2.631578 1.0649009 1953860
0.71740818 -2.6386151 1.0553291 1953861
0.71865427 -2.642103 1.0468546 1953862
0.71027058 -2.6237001 1.0457687 1953863
0.68847054 -2.5747616 1.0553968 1953864
0.67094594 -2.5355096 1.0621223 1953865
0.69591022 -2.5929675 1.0348434 1953866
0.70435774 -2.6128557 1.0205027 1953867
0.72418696 -2.6587048 0.99642676 1953868
0.72187275 -2.6541078 0.99058515 1953869
0.7191714 -2.6486251 0.98510456 1953870
0.68954909 -2.577194 1.1175104 1954575
0.68744713 -2.5730267 1.111891 1954576
0.68649852 -2.5714827 1.1054884 1954577
0.68515235 -2.5690334 1.09937 1954578
0.68418199 -2.5674396 1.0929875 1954579
0.69436675 -2.5912793 1.0783594 1954580
0.69912106 -2.6027558 1.0675404 1954581
0.69655323 -2.5975342 1.062171 1954582
0.67865628 -2.5573103 1.0687287 1954583
0.6852808 -2.5730636 1.056379 1954584
0.66781867 -2.5337877 1.0631146 1954585
0.66069233 -2.5181084 1.0618571 1954586
0.68628639 -2.5772626 1.0337598 1954587
0.67950249 -2.5623758 1.0321113 1954588
0.70531613 -2.6221132 1.0029039 1954589
0.70756805 -2.6279361 0.99334008 1954590
0.70073575 -2.6129467 0.99163806 1954591
0.70785362 -2.6299317 0.97769821 1954592
0.70289505 -2.6192312 0.97441876 1954593
0.67640638 -2.5418642 1.1276904 1955296
0.67354357 -2.5359757 1.122771 1955297
0.67650002 -2.5432792 1.1138197 1955298
0.67516887 -2.5408638 1.1078315 1955299
0.67614996 -2.5436954 1.1001765 1955300
0.67325008 -2.5377185 1.0953344 1955301
0.67420268 -2.5404897 1.0876536 1955302
0.67359751 -2.5397243 1.0811116 1955303
0.67413324 -2.5415542 1.0736779 1955304
0.671583 -2.5363665 1.0686302 1955305
0.66328204 -2.5180867 1.0682069 1955306
0.66378975 -2.51985 1.0608281 1955307
0.66924226 -2.5328817 1.0493455 1955308
0.67275542 -2.5415072 1.0393207 1955309
0.67205834 -2.5405416 1.0327486 1955310
0.67021036 -2.5369513 1.027156 1955311
0.6717633 -2.541122 1.0186166 1955312
0.66762459 -2.5323007 1.0150454 1955313
0.669146 -2.5364048 1.0064716 1955314
0.67441159 -2.5490735 0.9944241 1955315
0.67362809 -2.5479221 0.98779464 1955316
0.68633276 -2.5776339 0.96853846 1955317
0.66736865 -2.5165591 1.1283114 1956018
0.67190713 -2.5273983 1.1183591 1956019
0.670582 -2.5250025 1.1124424 1956020
0.6669172 -2.5173173 1.1082249 1956021
0.66867834 -2.5218961 1.1000879 1956022
0.67235482 -2.5308135 1.0904557 1956023
0.67214054 -2.5309346 1.0836623 1956024
0.67306978 -2.5336468 1.0759689 1956025
0.66974592 -2.5267277 1.0715575 1956026
0.66987848 -2.527638 1.0644548 1956027
0.67191434 -2.5328665 1.0557872 1956028
0.66856658 -2.525888 1.0514561 1956029
0.67133242 -2.5327809 1.0420957 1956030
0.67712545 -2.5465565 1.030085 1956031
0.67450362 -2.5412288 1.025112 1956032
0.66693544 -2.5246549 1.0244763 1956033
0.66924441 -2.5305283 1.0152937 1956034
0.67190778 -2.5372157 1.0057082 1956035
0.67341167 -2.5412722 0.99707848 1956036
0.67527109 -2.5461442 0.98805451 1956037
0.67146236 -2.5381079 0.98423809 1956038
0.67065793 -2.5369143 0.97764957 1956039
0.66984099 -2.5356932 0.97106332 1956040
0.67312557 -2.5438321 0.9604854 1956041
0.66928929 -2.5357239 0.95679635 1956042
-1.0254959 1.2180358 1.2994236 1956656
0.65546525 -2.4947186 1.1288315 1956739
0.65455598 -2.4932394 1.1227975 1956740
0.65595937 -2.4970057 1.1150882 1956741
0.6592772 -2.5051215 1.1059133 1956742
0.65948266 -2.5061803 1.0989648 1956743
0.65890306 -2.5054581 1.0925853 1956744
0.65908056 -2.5064571 1.0856115 1956745
0.65809155 -2.5048068 1.0795248 1956746
0.66207373 -2.5144637 1.0694752 1956747
0.6595242 -2.5092676 1.06459 1956748
0.66193342 -2.5153577 1.0556675 1956749
0.66508156 -2.5231383 1.0460435 1956750
0.66211653 -2.5169969 1.0414904 1956751
0.66598248 -2.5264258 1.0311166 1956752
0.67019778 -2.5366623 1.0203146 1956753
0.66454738 -2.5243955 1.0181015 1956754
0.66683149 -2.5302353 1.0088878 1956755
0.66720748 -2.5317235 1.001323 1956756
0.66606259 -2.5297394 0.99512219 1956757
0.66865927 -2.5363104 0.98542351 1956758
0.6656127 -2.5299802 0.98097628 1956759
0.66891569 -2.5381784 0.97047818 1956760
0.67144334 -2.5446115 0.96061873 1956761
0.66985095 -2.5416136 0.95472658 1956762
0.64891857 -2.4966586 1.1293224 1957459
0.64725333 -2.4934132 1.1238445 1957460
0.64787728 -2.4954293 1.116709 1957461
0.64810336 -2.4965334 1.1098323 1957462
0.64602572 -2.4923387 1.1046703 1957463
