# .PCD v0.7 - Point Cloud Data file format
VERSION 0.7
FIELDS x y z intensity
SIZE 4 4 4 4
TYPE F F F F
COUNT 1 1 1 1
WIDTH 1190
HEIGHT 1
VIEWPOINT 0 0 0 1 0 0 0
POINTS 1190
DATA ascii
2.2199204 -1.1891232 0.32419831 2739058
2.2250769 -1.1879226 0.33342996 2739059
2.1787503 -1.1855733 0.3945719 2739062
-9.7553434 -1.984635 0.44985309 2739202
-9.7503023 -1.9882118 0.40693331 2739203
-5.2084327 -1.6785306 0.4706538 2739222
-5.2075524 -1.6806521 0.44674444 2739223
-5.2163215 -1.683605 0.42079863 2739224
-5.2142406 -1.6856337 0.39702645 2739225
-5.2178965 -1.6881618 0.37198561 2739226
-5.2282448 -1.69128 0.34538496 2739227
-5.2287412 -1.6935494 0.3208636 2739228
-5.223299 -1.6953018 0.29765525 2739229
2.1933525 -1.1985432 0.30372378 2739768
2.2488799 -1.1966331 0.2839312 2739769
2.2437868 -1.1955793 0.29922357 2739770
2.2377307 -1.1945512 0.31493938 2739771
2.2429304 -1.1933545 0.32424805 2739772
2.1417747 -1.192865 0.40382791 2739774
2.1791303 -1.1911598 0.39512032 2739775
-9.7579012 -1.9609295 0.44756567 2739915
-9.7597952 -1.9650372 0.40385574 2739916
-5.2200322 -1.6666104 0.46734187 2739935
-5.2267866 -1.6737913 0.39336583 2739938
-5.2245874 -1.675822 0.36953917 2739939
-5.2329855 -1.6787522 0.34334129 2739940
-5.2305622 -1.6807735 0.31946123 2739941
-5.2280307 -1.682788 0.29557875 2739942
2.278966 -1.2037665 0.24198043 2740481
2.198869 -1.2035331 0.30116299 2740482
2.2405465 -1.2019212 0.2893765 2740483
2.2302165 -1.2009257 0.30759677 2740484
2.2206399 -1.1999366 0.32521379 2740485
2.2257981 -1.1987622 0.3344478 2740486
-9.7444315 -1.9852276 0.45110601 2740629
-9.7443504 -1.98918 0.40767232 2740630
-5.2172675 -1.6800238 0.46890283 2740649
-5.2154031 -1.682063 0.44515291 2740650
-5.2163587 -1.6843469 0.42079118 2740651
-5.2172027 -1.6866262 0.39639938 2740652
-5.2169604 -1.6888162 0.3721886 2740653
-5.224391 -1.6916792 0.34623736 2740654
-5.2239199 -1.6938605 0.32195199 2740655
-5.2330465 -1.696891 0.29541239 2740656
2.225898 -1.1988212 0.27224261 2741196
2.194968 -1.1981298 0.3025912 2741197
2.2409639 -1.1963488 0.2882877 2741198
2.2341142 -1.1953275 0.30453569 2741199
2.2271631 -1.1943207 0.32070115 2741200
2.2323377 -1.1931295 0.32996431 2741201
2.1341827 -1.1936687 0.39628011 2741202
2.1653521 -1.192082 0.39075455 2741203
2.1974864 -1.1904513 0.38500333 2741204
-9.756505 -2.0126219 0.45199594 2741344
-9.759388 -2.0168171 0.40816605 2741345
-5.2104297 -1.693705 0.47135913 2741364
-5.2193112 -1.6966848 0.44545889 2741365
-5.2212386 -1.6990597 0.42087412 2741366
-5.2201276 -1.7011697 0.39686942 2741367
-5.215013 -1.7029247 0.37369433 2741368
-5.2302251 -1.706507 0.34603089 2741369
-5.2287755 -1.7086016 0.32193479 2741370
-5.2252741 -1.7105135 0.29827428 2741371
2.279839 -1.1922519 0.23983987 2741908
2.197181 -1.1924837 0.30057579 2741909
2.2379751 -1.1906685 0.28926426 2741910
2.2293823 -1.1896981 0.30649221 2741911
2.2206802 -1.1887441 0.32362279 2741912
2.2258389 -1.1875426 0.33285815 2741913
2.1474321 -1.1869079 0.39984781 2741915
2.1953468 -1.1848775 0.38544625 2741916
-9.7577524 -2.0233521 0.45262626 2742056
-9.7527103 -2.0269053 0.40968254 2742057
-5.2090626 -1.6992825 0.47196534 2742076
-5.2072048 -1.7013109 0.44824448 2742077
-5.2198725 -1.7046447 0.4214896 2742078
-5.228508 -1.7076299 0.39542705 2742079
-5.2253332 -1.7095571 0.37179223 2742080
-5.2346973 -1.7126265 0.34537143 2742081
-5.2293563 -1.7143644 0.32212955 2742082
-5.2287669 -1.7165385 0.29779482 2742083
2.2270613 -1.1907302 0.27041838 2742624
2.2229416 -1.1896753 0.28520823 2742625
2.2187338 -1.1886321 0.29993904 2742626
2.210963 -1.1876665 0.31659019 2742627
2.2039585 -1.1866995 0.33265999 2742628
2.2090769 -1.1855025 0.34182307 2742629
-9.7432919 -2.016665 0.45376 2742772
-9.7382574 -2.0202157 0.41088131 2742773
-5.206356 -1.6960676 0.47229052 2742792
-5.2064533 -1.6982694 0.4481872 2742793
-5.2132697 -1.7010741 0.42264768 2742794
-5.2180138 -1.7037032 0.39743954 2742795
-5.2226377 -1.7063296 0.37216774 2742796
-5.2251964 -1.7087774 0.34726235 2742797
-5.2208371 -1.7106036 0.32384411 2742798
-5.2154031 -1.7123325 0.30066356 2742799
2.1944809 -1.1913648 0.30190077 2743334
2.2110012 -1.1899633 0.30453905 2743335
2.2162426 -1.1887577 0.31373227 2743336
2.2249274 -1.1874869 0.32098386 2743337
2.2335885 -1.1862129 0.3282885 2743338
2.1732585 -1.1841816 0.39716321 2743341
-9.7426138 -2.0115242 0.45338342 2743481
-9.7464943 -2.0157909 0.40950182 2743482
-5.2171898 -1.7008822 0.3973856 2743504
-5.2091565 -1.7023735 0.37485483 2743505
-5.2234015 -1.7058647 0.34743145 2743506
-5.2258453 -1.7083066 0.3224889 2743507
-5.217494 -1.7097758 0.2999571 2743508
2.2410443 -1.1927967 0.26254109 2744049
2.2092948 -1.1921955 0.29346704 2744050
2.2388525 -1.1905683 0.28869042 2744051
2.2354746 -1.1895051 0.30295306 2744052
2.2337549 -1.1884205 0.3161813 2744053
2.2389455 -1.1872121 0.32547358 2744054
2.1456881 -1.1868652 0.40073243 2744056
2.1865642 -1.1849788 0.39013052 2744057
-9.7495766 -2.0117259 0.452627 2744197
-9.7484999 -2.0155993 0.40927494 2744198
-5.2192245 -1.6942722 0.46952367 2744217
-5.2154045 -1.6961341 0.44615597 2744218
-5.2163596 -1.69842 0.42179 2744219
-5.2142782 -1.7004405 0.39801291 2744220
-5.2091694 -1.7021928 0.3748633 2744221
-5.2214689 -1.7055092 0.3478694 2744222
-5.2248869 -1.7080384 0.32271641 2744223
-5.2252727 -1.7103003 0.29817966 2744224
2.1954689 -1.1925248 0.30153257 2744766
2.233659 -1.1907564 0.29170951 2744767
2.2189734 -1.1898975 0.31238282 2744768
2.204149 -1.189062 0.33290574 2744769
2.2049019 -1.187953 0.34450582 2744770
2.1172018 -1.1885654 0.40492541 2744771
2.1456943 -1.186958 0.40075934 2744772
2.1760187 -1.1852889 0.39586833 2744773
-9.7485924 -2.0116041 0.45272049 2744913
-9.7475166 -2.0154772 0.40937254 2744914
-5.2231402 -1.6945891 0.46873748 2744933
-5.212481 -1.6958495 0.44673708 2744934
-5.2222195 -1.6989121 0.42056563 2744935
-5.2152591 -1.7005007 0.39779443 2744936
-5.2150178 -1.7026885 0.37358779 2744937
-5.2243934 -1.7057443 0.34721276 2744938
-5.2200336 -1.7075727 0.32379916 2744939
-5.2165427 -1.7094806 0.30017647 2744940
2.241909 -1.1928807 0.26205298 2745476
2.2188067 -1.1921322 0.28795871 2745477
2.2275879 -1.1908613 0.29519078 2745478
2.2128873 -1.190006 0.31583774 2745479
2.1980479 -1.1891739 0.33633426 2745480
2.1996593 -1.1880519 0.34742051 2745481
2.1575489 -1.1856666 0.40585303 2745484
-9.7515717 -2.0130982 0.45256671 2745624
-9.7465334 -2.0166543 0.40965378 2745625
-5.2046175 -1.6936375 0.4725025 2745644
-5.2162809 -1.7012666 0.39767662 2745647
-5.2150655 -1.7033675 0.37367621 2745648
-5.232223 -1.7071245 0.34558323 2745649
-5.2375736 -1.709833 0.31994557 2745650
-5.2379475 -1.7120987 0.29535377 2745651
2.2357581 -1.192708 0.26555172 2746191
2.217828 -1.1918782 0.28841725 2746192
2.2396069 -1.1903797 0.28816554 2746193
2.238838 -1.1892694 0.3009474 2746194
2.2362561 -1.1881989 0.31468192 2746195
2.2414527 -1.1869887 0.32398537 2746196
2.1385596 -1.1868401 0.40454534 2746198
2.1741428 -1.1850626 0.39676788 2746199
-9.7393064 -2.0174971 0.4543387 2746339
-9.7342749 -2.0210459 0.41147715 2746340
-5.2229867 -1.6981596 0.46908316 2746359
-5.2219286 -1.7046771 0.39669603 2746362
-5.2197337 -1.7066914 0.37288052 2746363
-5.2232685 -1.7092266 0.34777322 2746364
-5.2266841 -1.7117585 0.32261175 2746365
-5.2270684 -1.7140207 0.29806665 2746366
2.2322242 -1.1915977 0.26746443 2746900
2.1987255 -1.1910518 0.29935989 2746901
2.2265227 -1.189443 0.29553363 2746902
2.2239838 -1.1883729 0.30924895 2746903
2.220495 -1.1873288 0.32341054 2746904
2.2256534 -1.1861246 0.33264565 2746905
2.1599922 -1.184225 0.40427423 2746908
-9.7548676 -2.0237803 0.45315623 2747048
-9.7498264 -2.0273335 0.41022551 2747049
-5.2248068 -1.7010511 0.46900216 2747068
-5.2198458 -1.7072203 0.39741421 2747071
-5.2108374 -1.7086158 0.3750802 2747072
-5.217298 -1.7114162 0.34936732 2747073
-5.2207203 -1.7139486 0.32423151 2747074
-5.2220817 -1.7162989 0.29948863 2747075
2.2055097 -1.189896 0.29526511 2747612
2.2168574 -1.188574 0.30094352 2747613
2.2203765 -1.1873944 0.31115252 2747614
2.2238464 -1.1862177 0.32136962 2747615
2.229013 -1.1850086 0.3306196 2747616
-9.7392654 -2.0190432 0.454561 2747759
-9.7342339 -2.0225923 0.41169944 2747760
-5.2200632 -1.698747 0.46979591 2747779
-5.2221017 -1.7011278 0.44523758 2747780
-5.2250009 -1.7035912 0.42043808 2747781
-5.2287593 -1.7061385 0.39538527 2747782
-5.2246113 -1.7079793 0.37196091 2747783
-5.2223048 -1.7099881 0.34812072 2747784
-5.2237778 -1.7123436 0.32340166 2747785
-5.2290192 -1.7150497 0.29775327 2747786
2.2338586 -1.1912661 0.26643702 2748323
2.2055514 -1.1906322 0.29532582 2748324
2.2463648 -1.1887794 0.28404838 2748325
2.2343187 -1.1878763 0.30329472 2748326
2.2212756 -1.1870105 0.3229045 2748327
2.2264361 -1.1858048 0.33214328 2748328
2.1607823 -1.1839124 0.40378448 2748331
-9.7604914 -2.015126 0.45177117 2748471
-9.7554474 -2.0186844 0.40881914 2748472
-5.2232289 -1.6959811 0.46891657 2748491
-5.2145233 -1.6974113 0.44652024 2748492
-5.2174306 -1.6998701 0.42175457 2748493
-5.2172985 -1.702064 0.39756057 2748494
-5.2190027 -1.7044268 0.37292448 2748495
-5.2244835 -1.7071356 0.34739181 2748496
-5.225955 -1.7094904 0.32266417 2748497
-5.2273116 -1.7118405 0.29789993 2748498
2.2047482 -1.1918182 0.29590872 2749035
2.2403607 -1.1900802 0.28762174 2749036
2.2378566 -1.1890011 0.30139703 2749037
2.2344017 -1.1879478 0.31561896 2749038
2.2387211 -1.1867546 0.3254022 2749039
2.1178493 -1.1880257 0.40434757 2749040
2.1603794 -1.1861271 0.39250839 2749041
2.2039275 -1.1841686 0.38054228 2749042
-9.7469206 -2.0099533 0.45296299 2749182
-9.7418842 -2.0135098 0.4100717 2749183
-5.2175374 -1.6932814 0.46992201 2749202
-5.2272177 -1.7007481 0.39534259 2749205
-5.2191758 -1.7022449 0.37276924 2749206
-5.2304935 -1.7054753 0.34594777 2749207
-5.2300158 -1.707657 0.32163262 2749208
-5.2294269 -1.7098325 0.29729798 2749209
2.2494857 -1.1931188 0.25751546 2749746
2.2272677 -1.1923476 0.28295243 2749747
2.2386708 -1.1910284 0.28872618 2749748
2.2396369 -1.1898874 0.30051452 2749749
2.2379284 -1.1887996 0.31376156 2749750
2.2396374 -1.187655 0.3250218 2749751
2.1196394 -1.1888568 0.40348324 2749752
2.1437523 -1.1873392 0.40172702 2749753
2.1687968 -1.1857829 0.39968392 2749754
-9.7439547 -2.0096848 0.45328686 2749894
-9.7438726 -2.0136359 0.40984887 2749895
-5.212657 -1.6928364 0.47089046 2749914
-5.2194262 -1.7000384 0.39699376 2749917
-5.2191815 -1.702228 0.37277013 2749918
-5.2256351 -1.7050222 0.34702262 2749919
-5.2280779 -1.7074649 0.32207155 2749920
-5.2294326 -1.7098157 0.29729891 2749921
2.2382712 -1.1933076 0.26409602 2750460
2.2108376 -1.192629 0.29249859 2750461
2.2508004 -1.1908282 0.28174597 2750462
2.2239943 -1.1901721 0.30942279 2750463
2.1969893 -1.1895531 0.33684349 2750464
2.2020912 -1.1883663 0.34597677 2750465
2.1643963 -1.1858798 0.40206414 2750468
-9.7558947 -2.0104115 0.45201367 2750608
-9.7508535 -2.0139718 0.40908358 2750609
-5.207809 -1.6922958 0.47187382 2750628
-5.2098589 -1.6946706 0.44737059 2750629
-5.2303314 -1.6986798 0.41898972 2750630
-5.2321367 -1.701052 0.39432794 2750631
-5.2231159 -1.7024637 0.37194398 2750632
-5.2324843 -1.7055211 0.34553504 2750633
-5.2310328 -1.707616 0.32143047 2750634
-5.2226768 -1.7090894 0.2988776 2750635
2.2261708 -1.1935651 0.27119377 2751175
2.2004359 -1.1928638 0.29853919 2751176
2.2568393 -1.1907878 0.27826735 2751177
2.2343924 -1.1900506 0.30349621 2751178
2.2117682 -1.1893457 0.3285068 2751179
2.2169058 -1.1881505 0.33770433 2751180
2.1375799 -1.187528 0.40509748 2751182
2.1766794 -1.1856909 0.39541325 2751183
-9.7598677 -2.0106874 0.45158932 2751323
-9.7637396 -2.014961 0.40763444 2751324
-5.2214222 -1.7000803 0.39660245 2751346
-5.2143602 -1.7016625 0.37384409 2751347
-5.2169275 -1.7041066 0.34897694 2751348
-5.2232661 -1.7068967 0.32318801 2751349
-5.2217135 -1.7089826 0.2991063 2751350
2.2356515 -1.193426 0.26563022 2751888
2.2168567 -1.1926043 0.28899774 2751889
2.2334337 -1.1912022 0.29173449 2751890
2.2178795 -1.1903553 0.31290269 2751891
2.2021821 -1.189533 0.33391291 2751892
2.2072968 -1.1883432 0.3430689 2751893
2.1340656 -1.1876098 0.40702048 2751895
2.167881 -1.1858816 0.40017623 2751896
-9.7628593 -2.0108366 0.45128694 2752036
-9.7578163 -2.0144002 0.40832663 2752037
-5.2068558 -1.692149 0.47209024 2752056
-5.2089067 -1.6945238 0.44759142 2752057
-5.2245016 -1.6981016 0.42022499 2752058
-5.2311854 -1.7009051 0.3945573 2752059
-5.2241139 -1.7024907 0.37175664 2752060
-5.2295904 -1.7051998 0.34620264 2752061
-5.2281418 -1.7072941 0.32211068 2752062
-5.2139635 -1.7082399 0.30091017 2752063
2.2761698 -1.1928099 0.24185491 2752604
2.1986899 -1.1929395 0.29956111 2752605
2.2550895 -1.1908656 0.2792818 2752606
2.2291627 -1.1901901 0.30648252 2752607
2.2030418 -1.1895506 0.33343497 2752608
2.2003007 -1.1885071 0.34698039 2752609
2.1428268 -1.1874689 0.40223637 2752611
2.178421 -1.1857008 0.39447868 2752612
-9.7530203 -2.0097253 0.45239615 2752752
-9.7479801 -2.0132861 0.40947911 2752753
-5.2177539 -1.6951314 0.44584006 2752773
-5.2206583 -1.6975913 0.42106172 2752774
-5.2185745 -1.6996149 0.39726761 2752775
-5.2134619 -1.7013707 0.37410098 2752776
-5.2247858 -1.7045996 0.34730509 2752777
-5.2350039 -1.7077428 0.32060632 2752778
-5.2208185 -1.7086917 0.29937613 2752779
2.2761283 -1.19291 0.24187626 2753319
2.1778998 -1.193379 0.31163996 2753320
2.2117133 -1.1917039 0.30423498 2753321
2.2134821 -1.1905625 0.31541154 2753322
2.2151937 -1.1894256 0.32658094 2753323
2.2185936 -1.188261 0.33676824 2753324
2.141031 -1.187596 0.40321711 2753326
2.1862936 -1.185635 0.39021674 2753327
-9.7411146 -2.0088322 0.45366818 2753467
-9.7360821 -2.0123882 0.4108029 2753468
-5.2127686 -1.6925198 0.4709408 2753487
-5.2195382 -1.6997236 0.39704433 2753490
-5.2202678 -1.7020007 0.37261033 2753491
-5.237421 -1.7057548 0.34449607 2753492
-5.2301345 -1.7073269 0.32168433 2753493
-5.2246914 -1.7090642 0.298466 2753494
2.1779072 -1.193354 0.3116273 2754036
2.2186544 -1.1915601 0.30023319 2754037
2.2143586 -1.1905218 0.314904 2754038
2.209975 -1.1894952 0.32951483 2754039
2.2151089 -1.188301 0.33870491 2754040
2.1384065 -1.1876239 0.40464363 2754042
2.1695938 -1.185948 0.39924628 2754043
-9.7520895 -2.0093591 0.45252371 2754183
-9.7470512 -2.0129204 0.40961111 2754184
-5.2157626 -1.6926043 0.47039434 2754203
-5.2225246 -1.6998124 0.39645976 2754206
-5.2174087 -1.70157 0.37327617 2754207
-5.227756 -1.704713 0.34667805 2754208
-5.2272816 -1.7068949 0.32237571 2754209
-5.2247539 -1.7088953 0.29850039 2754210
2.2381489 -1.1935978 0.26415932 2754744
2.2141736 -1.1928577 0.29055232 2754745
2.2298777 -1.191473 0.29377633 2754746
2.2160528 -1.1905957 0.31393978 2754747
2.2020929 -1.1897408 0.33396018 2754748
2.2072077 -1.1885511 0.3431161 2754749
2.1168878 -1.1891854 0.40499753 2754750
2.1418719 -1.1876546 0.40275013 2754751
2.1677921 -1.1860844 0.40022331 2754752
-9.7489004 -2.0122235 0.45313743 2754892
-9.7438641 -2.0157821 0.41023752 2754893
-5.2136912 -1.6941073 0.47094092 2754912
-5.2108536 -1.6960548 0.44740108 2754913
-5.225471 -1.6995516 0.42022872 2754914
-5.2224073 -1.7014896 0.39661971 2754915
-5.2172918 -1.7032458 0.37343594 2754916
-5.218884 -1.7056049 0.34877095 2754917
-5.2223058 -1.7081351 0.32363072 2754918
-5.2168708 -1.709869 0.30044615 2754919
2.2320664 -1.193028 0.26764682 2755460
2.2054827 -1.1923425 0.29552159 2755461
2.2436984 -1.1905669 0.28574243 2755462
2.2255638 -1.1897637 0.30844101 2755463
2.2064021 -1.1890037 0.33144993 2755464
2.2115273 -1.1878098 0.34062466 2755465
2.1409507 -1.1870337 0.40317705 2755467
2.1747816 -1.1852939 0.39636245 2755468
-9.7435961 -2.0170882 0.45415264 2755608
-9.7385626 -2.020642 0.41127411 2755609
-5.2174201 -1.697288 0.47041982 2755628
-5.2319741 -1.7052025 0.39481047 2755631
-5.2151651 -1.7059069 0.37410951 2755632
-5.2216225 -1.708706 0.34837949 2755633
-5.222126 -1.7109739 0.32388362 2755634
-5.2166915 -1.7127047 0.30069876 2755635
2.2164454 -1.1921384 0.27664143 2756176
2.1863658 -1.1915362 0.30645999 2756177
2.2375317 -1.1895186 0.28911582 2756178
2.2315459 -1.1885047 0.30485964 2756179
2.2254636 -1.1875044 0.32052854 2756180
2.2306352 -1.1862969 0.32978624 2756181
2.1219995 -1.1873618 0.40193251 2756182
2.1566441 -1.1856093 0.39442849 2756183
2.1913903 -1.1838239 0.38720483 2756184
-9.7541428 -2.0229959 0.45341507 2756324
-9.7491035 -2.0265508 0.41048884 2756325
-5.2211399 -1.7003473 0.46988168 2756344
-5.2231774 -1.7027301 0.44531924 2756345
-5.2241254 -1.7050207 0.42091951 2756346
-5.2210631 -1.706955 0.39731428 2756347
-5.2110806 -1.7082642 0.37518644 2756348
-5.2272687 -1.7119499 0.34732714 2756349
-5.2248507 -1.7139534 0.32346261 2756350
-5.2213554 -1.7158604 0.29981843 2756351
2.197526 -1.1902573 0.29981998 2756890
2.2079878 -1.1889563 0.30596322 2756891
2.2114856 -1.1877816 0.31613451 2756892
2.2140632 -1.1866266 0.32680488 2756893
2.219207 -1.185423 0.33601323 2756894
2.1451643 -1.1847866 0.4005602 2756896
2.1807616 -1.1829709 0.39280927 2756897
-9.7525797 -2.0172622 0.45315132 2757037
-9.7475414 -2.0208194 0.41023391 2757038
-5.2203999 -1.6972553 0.46982083 2757057
-5.2087684 -1.6984239 0.44803032 2757058
-5.2165589 -1.701318 0.42228067 2757059
-5.2203259 -1.7038625 0.39726633 2757060
-5.2152123 -1.7056153 0.37409088 2757061
-5.2197251 -1.7082381 0.34879029 2757062
-5.2143993 -1.709976 0.32561645 2757063
-5.2089725 -1.7117045 0.30246562 2757064
2.2552299 -1.1916051 0.25386772 2757601
2.2356217 -1.1907996 0.27782521 2757602
2.2288465 -1.1897917 0.2941083 2757603
2.220233 -1.1888303 0.31129923 2757604
2.2123811 -1.187869 0.3279016 2757605
2.217521 -1.1866692 0.3371025 2757606
2.139081 -1.186082 0.40402934 2757608
2.1711483 -1.1843637 0.39815739 2757609
-9.7410908 -2.0107803 0.45392889 2757749
-9.7360582 -2.0143356 0.41106352 2757750
-5.2235575 -1.6945201 0.46895623 2757769
-5.2207108 -1.6964706 0.44537371 2757770
-5.2284908 -1.6993641 0.41957265 2757771
-5.2234755 -1.7011293 0.39636329 2757772
-5.218359 -1.7028857 0.37317523 2757773
-5.2257867 -1.7057688 0.34721741 2757774
-5.2204552 -1.7075112 0.32401854 2757775
-5.2150226 -1.7092444 0.30084237 2757776
2.2002439 -1.1925815 0.29851723 2758312
2.2263131 -1.1910214 0.29569685 2758313
2.2185616 -1.1900414 0.3123813 2758314
2.2107053 -1.1890769 0.32897571 2758315
2.2158408 -1.1878811 0.33816931 2758316
2.1580229 -1.1857862 0.40538609 2758319
-9.7502079 -1.9941024 0.45148483 2758459
-9.7451706 -1.9976692 0.40858567 2758460
-5.2202888 -1.6848301 0.46887362 2758479
-5.2221675 -1.6916052 0.39591888 2758482
-5.217052 -1.6933699 0.37274021 2758483
-5.2293472 -1.6966674 0.34571519 2758484
-5.2298436 -1.698936 0.32118943 2758485
-5.2244015 -1.7006814 0.29797614 2758486
2.2348623 -1.196895 0.26644921 2759027
2.2143345 -1.1960691 0.290815 2759028
2.2317736 -1.1946814 0.29304424 2759029
2.2318544 -1.1935594 0.30529717 2759030
2.2327397 -1.1924295 0.31703708 2759031
2.2379289 -1.1912307 0.32632622 2759032
2.1411483 -1.1907738 0.40348282 2759034
2.1793804 -1.1890142 0.39429492 2759035
-9.7448959 -1.9547355 0.53619111 2759173
-9.7522526 -1.9631876 0.44864532 2759175
-9.7472143 -1.9667696 0.40574756 2759176
-5.2291188 -1.6753929 0.39313838 2759198
-5.2239971 -1.6771752 0.36993572 2759199
-5.2265582 -1.6796097 0.34503338 2759200
-5.2445564 -1.6833677 0.31657484 2759201
-5.2323012 -1.6845517 0.2948693 2759202
2.2137477 -1.2038376 0.27969262 2759741
2.1948905 -1.2029393 0.30295479 2759742
2.2270219 -1.2014349 0.29663187 2759743
2.2157915 -1.2004621 0.3152909 2759744
2.2044389 -1.1995082 0.33382955 2759745
2.2069392 -1.1983781 0.34445602 2759746
2.1424568 -1.1971669 0.40357575 2759748
2.1789401 -1.1955539 0.39535367 2759749
-9.7488031 -1.9245096 0.53322631 2759887
-9.7680569 -1.9337918 0.44436127 2759889
-9.763011 -1.9373943 0.40140444 2759890
-5.2273192 -1.6521138 0.46486831 2759909
-5.2262592 -1.6586441 0.39246953 2759912
-5.2162695 -1.6600444 0.37034121 2759913
-5.222733 -1.6627865 0.34461462 2759914
-5.2261548 -1.6652882 0.31946763 2759915
-5.2304292 -1.6678678 0.29404354 2759916
2.2874935 -1.2097656 0.23731643 2760459
2.2074058 -1.2093073 0.29651865 2760460
2.2057562 -1.2082099 0.30968052 2760461
2.2014239 -1.2071462 0.32428807 2760462
2.1970043 -1.2060932 0.33883545 2760463
2.2021067 -1.2049468 0.34796849 2760464
2.1437306 -1.2034695 0.40367076 2760466
2.1881406 -1.2018703 0.39118522 2760467
-9.7416697 -1.9573871 0.44939467 2760607
-9.7366371 -1.960968 0.40654469 2760608
-5.2176547 -1.6651193 0.46787751 2760627
-5.2195444 -1.6718832 0.3949731 2760630
-5.2202759 -1.6741557 0.37054726 2760631
-5.223814 -1.67667 0.34544665 2760632
-5.2320943 -1.6795938 0.3191947 2760633
-5.2344184 -1.6820214 0.2941893 2760634
2.1889048 -1.2040825 0.30657592 2761173
2.221889 -1.2025876 0.29973003 2761174
2.217598 -1.2015256 0.31441021 2761175
2.2123487 -1.2004861 0.32952094 2761176
2.2174883 -1.1993177 0.33872089 2761177
2.1262848 -1.1994936 0.40108505 2761178
2.1521761 -1.1980745 0.39840814 2761179
2.1790075 -1.1966196 0.39546007 2761180
-9.7554789 -1.9896828 0.45051035 2761320
-9.7504387 -1.9932541 0.40758991 2761321
-5.2263198 -1.6827399 0.46747953 2761340
-5.2088223 -1.6834391 0.4468582 2761341
-5.2205176 -1.6866477 0.42030212 2761342
-5.2272072 -1.6894358 0.39465454 2761343
-5.2230611 -1.6912895 0.37124422 2761344
-5.2314591 -1.6942425 0.34505284 2761345
-5.2319531 -1.6965114 0.32051867 2761346
-5.233305 -1.6988611 0.29573312 2761347
2.1902044 -1.1974587 0.30497923 2761887
2.2665265 -1.1952077 0.27320737 2761888
2.2388864 -1.1944985 0.30144194 2761889
2.2110429 -1.1938272 0.32941312 2761890
2.2161794 -1.1926429 0.33860776 2761891
2.1171155 -1.1932415 0.40534449 2761892
2.1350842 -1.1918846 0.40693796 2761893
-9.75317 -2.0089922 0.45238703 2762034
-9.7481308 -2.012553 0.40946996 2762035
-5.219676 -1.6993066 0.39705342 2762057
-5.2194319 -1.7014971 0.37282988 2762058
-5.2239404 -1.7041171 0.34751204 2762059
-5.2312441 -1.7069968 0.32147443 2762060
-5.2258 -1.708735 0.29825196 2762061
2.2415457 -1.1936241 0.26211587 2762597
2.2089334 -1.1930239 0.29354796 2762598
2.2445586 -1.191304 0.28528088 2762599
2.2351143 -1.1903419 0.30303389 2762600
2.2255564 -1.1893973 0.32068184 2762601
2.2307281 -1.1881946 0.32993996 2762602
2.1677394 -1.1861646 0.40020469 2762605
-9.7571335 -2.0093129 0.45196387 2762745
-9.7520924 -2.0128753 0.4090296 2762746
-5.2246332 -1.6931337 0.46863404 2762765
-5.2169037 -1.6946564 0.44603625 2762766
-5.2246871 -1.6975464 0.420252 2762767
-5.2225995 -1.6995713 0.39644098 2762768
-5.2165098 -1.7012421 0.3734678 2762769
-5.2229676 -1.7040355 0.34773311 2762770
-5.2283282 -1.7067401 0.32213783 2762771
-5.2296834 -1.7090917 0.29736528 2762772
2.1855917 -1.1934119 0.30711722 2763314
2.2419589 -1.191352 0.28678155 2763315
2.2290328 -1.1904522 0.30650267 2763316
2.2151053 -1.1895895 0.32657975 2763317
2.2202513 -1.1883926 0.33579242 2763318
2.1273375 -1.1890665 0.39918128 2763319
2.1584876 -1.1874106 0.39362171 2763320
2.1897225 -1.185726 0.38831198 2763321
-9.7591066 -2.0095146 0.45175159 2763461
-9.7540655 -2.013078 0.40880865 2763462
-5.2119198 -1.6920469 0.47115225 2763481
-5.2245417 -1.6997689 0.39603081 2763484
-5.2233181 -1.7018743 0.3719967 2763485
-5.228796 -1.7045829 0.34644702 2763486
-5.226377 -1.7065901 0.32257852 2763487
-5.2267628 -1.7088532 0.29803759 2763488
2.2303407 -1.1937985 0.26870239 2764030
2.2054811 -1.1930765 0.29556412 2764031
2.2280972 -1.1915795 0.29476163 2764032
2.2142677 -1.1907028 0.31491739 2764033
2.2020457 -1.1898171 0.33394808 2764034
2.2027953 -1.1887087 0.34554055 2764035
2.2064352 -1.185382 0.37927184 2764038
-9.7468777 -2.0130565 0.45341963 2764178
-9.7418423 -2.0166128 0.41052827 2764179
-5.2244339 -1.695578 0.46883428 2764198
-5.2196336 -1.6973556 0.44564295 2764199
-5.2215614 -1.6997305 0.42105824 2764200
-5.2165523 -1.7014927 0.39787853 2764201
-5.211442 -1.7032456 0.37472022 2764202
-5.2354131 -1.7076163 0.34514159 2764203
-5.2242413 -1.7088336 0.32321414 2764204
-5.220746 -1.7107433 0.29957452 2764205
2.2794476 -1.1920053 0.23975337 2764744
2.1959274 -1.1922622 0.30099469 2764745
2.2375853 -1.1904273 0.2891793 2764746
2.2289929 -1.1894579 0.30640757 2764747
2.2194204 -1.1885213 0.32402962 2764748
2.224577 -1.1873196 0.33326101 2764749
2.1176744 -1.188308 0.40440929 2764750
2.147923 -1.1866606 0.39928636 2764751
2.1791322 -1.1849676 0.39392981 2764752
-9.7573872 -2.0193965 0.45273745 2764892
-9.7572975 -2.0233543 0.40923914 2764893
-5.226172 -1.6987065 0.46872136 2764912
-5.2242994 -1.7007428 0.44492829 2764913
-5.2164674 -1.7022493 0.42234159 2764914
-5.2212086 -1.7048815 0.39712107 2764915
-5.2219362 -1.7071602 0.3726787 2764916
-5.2303324 -1.7101383 0.34648961 2764917
-5.23277 -1.7125856 0.32151783 2764918
-5.2312074 -1.7146739 0.29739359 2764919
2.2190127 -1.1918232 0.27508599 2765458
2.2019067 -1.1909969 0.29737905 2765459
2.2427115 -1.1891512 0.2860865 2765460
2.2376075 -1.1881191 0.30135801 2765461
2.2332819 -1.1870831 0.31607127 2765462
2.2384725 -1.1858706 0.32536301 2765463
2.1408355 -1.1856719 0.40302873 2765465
2.1816988 -1.1837612 0.39240426 2765466
-9.7552052 -2.0219758 0.45324785 2765606
-9.750165 -2.0255327 0.41031739 2765607
-5.2250829 -1.7001109 0.46909139 2765626
-5.2201228 -1.7062857 0.39750385 2765629
-5.218904 -1.7083888 0.37348655 2765630
-5.2243843 -1.7111038 0.34795454 2765631
-5.2297435 -1.7138168 0.32235152 2765632
-5.2233305 -1.7154593 0.2993558 2765633
2.2241533 -1.1911812 0.27203062 2766170
2.1966872 -1.19054 0.3003765 2766171
2.2270794 -1.1888763 0.29504514 2766172
2.2115116 -1.18805 0.31618866 2766173
2.1958005 -1.1872483 0.33717424 2766174
2.2008998 -1.1860555 0.34630305 2766175
2.1175742 -1.1866626 0.4042992 2766176
2.15133 -1.1849172 0.39725474 2766177
2.1851835 -1.1831399 0.3904829 2766178
-9.7437649 -2.0152555 0.454 2766318
-9.7387314 -2.01881 0.41112149 2766319
-5.2223377 -1.7033364 0.39678586 2766341
-5.216248 -1.7050028 0.37381229 2766342
-5.2207599 -1.7076254 0.34850737 2766343
-5.228066 -1.7105094 0.32248309 2766344
-5.2226257 -1.712243 0.29927287 2766345
2.273344 -1.1915802 0.24325418 2766885
2.1958616 -1.1917566 0.30095413 2766886
2.2080531 -1.1904331 0.30609319 2766887
2.207207 -1.1893401 0.31873935 2766888
2.2071614 -1.1882383 0.33086455 2766889
2.2122884 -1.1870422 0.3400428 2766890
2.154876 -1.1860237 0.39540875 2766892
2.203687 -1.183953 0.38056272 2766893
-9.7550392 -2.0108118 0.45233828 2767033
-9.75 -2.0143728 0.40941262 2767034
-5.2206645 -1.6936872 0.46949607 2767053
-5.2100091 -1.6949494 0.44750842 2767054
-5.2187748 -1.6979249 0.42155224 2767055
-5.2225399 -1.7004673 0.39652911 2767056
-5.2174244 -1.7022241 0.3733454 2767057
-5.2122073 -1.7039719 0.35018361 2767058
-5.2282691 -1.7076374 0.32222605 2767059
-5.2237992 -1.7094619 0.29879296 2767060
2.2665255 -1.1928697 0.2474134 2767599
2.1881583 -1.1930225 0.30558196 2767600
2.2323978 -1.1911598 0.29223764 2767601
2.2333493 -1.1900218 0.30399963 2767602
2.2333677 -1.1889051 0.31623799 2767603
2.2385583 -1.1876971 0.32553011 2767604
2.1176844 -1.1889149 0.40447292 2767605
2.1391611 -1.1874498 0.40414798 2767606
2.1606781 -1.1859668 0.40398902 2767607
-9.7571163 -2.0093856 0.4519361 2767747
-9.7520752 -2.0129473 0.40900177 2767748
-5.21103 -1.6941737 0.44719881 2767768
-5.2149162 -1.6967169 0.42224824 2767769
-5.2177114 -1.6991706 0.39744818 2767770
-5.2242846 -1.7019676 0.37175962 2767771
-5.2268438 -1.7044148 0.34684983 2767772
-5.2224827 -1.7062461 0.32342777 2767773
-5.2170482 -1.7079812 0.30024329 2767774
2.196841 -1.1931911 0.30056819 2768314
2.2497694 -1.1911829 0.2822758 2768315
2.229043 -1.1904161 0.30648476 2768316
2.2090187 -1.1896639 0.32999951 2768317
2.2071657 -1.1886004 0.34308428 2768318
2.1168458 -1.1892332 0.4049657 2768319
2.1435847 -1.1876689 0.40175885 2768320
2.1721468 -1.1860454 0.39781213 2768321
-9.7561169 -2.009341 0.45203647 2768461
-9.7510767 -2.0129023 0.4091064 2768462
-5.222578 -1.6996192 0.39641061 2768484
-5.2203832 -1.7016366 0.37259534 2768485
-5.2326736 -1.7049536 0.34555483 2768486
-5.2302504 -1.7069615 0.32166931 2768487
-5.2228661 -1.7085235 0.29889742 2768488
2.2260387 -1.1938257 0.27120852 2769028
2.2080843 -1.1929929 0.29403237 2769029
2.2281067 -1.1915385 0.29473707 2769030
2.2194905 -1.1905708 0.31192371 2769031
2.2116363 -1.189604 0.32852149 2769032
2.2167742 -1.1884093 0.33771902 2769033
2.1462209 -1.1876051 0.40031502 2769035
2.1870997 -1.1857322 0.38971722 2769036
-9.7589235 -2.0117736 0.45188114 2769176
-9.7538815 -2.0153344 0.40893799 2769177
-5.2156591 -1.700191 0.39793676 2769199
-5.2144456 -1.7022924 0.37394059 2769200
-5.2277136 -1.7056972 0.34671113 2769201
-5.2311258 -1.7082286 0.3215327 2769202
-5.230536 -1.7104048 0.29719383 2769203
2.193368 -1.1927495 0.30251598 2769746
2.2445533 -1.1907607 0.28520495 2769747
2.2307651 -1.1898786 0.30543265 2769748
2.2185838 -1.188987 0.32453534 2769749
2.2237387 -1.1877873 0.33376309 2769750
2.1185822 -1.18872 0.40393841 2769751
2.1479564 -1.1870962 0.39929959 2769752
2.178287 -1.1854279 0.39441955 2769753
-9.761837 -2.0273697 0.4528589 2769893
-9.7567949 -2.0309241 0.40989771 2769894
-5.2249389 -1.7026974 0.46925229 2769913
-5.2268009 -1.7094829 0.39622131 2769916
-5.2226543 -1.7113206 0.37280524 2769917
-5.2349401 -1.7146602 0.34575394 2769918
-5.2286282 -1.7163079 0.32273072 2769919
-5.223187 -1.7180351 0.29951572 2769920
2.2317944 -1.1899258 0.26730105 2770451
2.2034848 -1.1893111 0.29618451 2770452
2.217428 -1.1879377 0.30035862 2770453
2.2226863 -1.186723 0.30958128 2770454
2.2340004 -1.185388 0.31538829 2770455
2.2461765 -1.1840291 0.32078388 2770456
2.133671 -1.1842182 0.40668267 2770458
2.1674824 -1.1824336 0.39983293 2770459
-9.7488937 -2.0413857 0.45552692 2770599
-9.7468271 -2.0451746 0.41228196 2770600
-5.2184477 -1.7168643 0.39861336 2770622
-5.2182035 -1.7190533 0.37438968 2770623
-5.2188215 -1.7213264 0.34993103 2770624
-5.2183542 -1.7235032 0.32566243 2770625
-5.2129235 -1.725219 0.30248901 2770626
2.2229135 -1.1868433 0.27206337 2771170
2.1945851 -1.1862767 0.3009133 2771171
2.2275679 -1.1844996 0.29407212 2771172
2.2189536 -1.1835606 0.31126136 2771173
2.2111013 -1.1826198 0.32786155 2771174
2.216238 -1.1814083 0.33705753 2771175
2.1351767 -1.1810786 0.4054347 2771177
2.1769001 -1.1790563 0.39430249 2771178
-9.7608805 -2.0404823 0.45412874 2771318
-9.7558374 -2.0440323 0.41116711 2771319
-5.2195287 -1.7093523 0.47093257 2771338
-5.2205906 -1.7116497 0.44657224 2771339
-5.2312937 -1.7148335 0.42016372 2771340
-5.2350459 -1.717392 0.39508209 2771341
-5.2328382 -1.7194079 0.37120685 2771342
-5.2363596 -1.7219572 0.34604108 2771343
-5.2271309 -1.723327 0.32366481 2771344
-5.2255735 -1.7254108 0.29956159 2771345
2.2247117 -1.1872793 0.27115428 2771882
2.2007091 -1.1866204 0.29749781 2771883
2.2363067 -1.1847943 0.28918695 2771884
2.2303195 -1.183794 0.3049283 2771885
2.225107 -1.1827892 0.32010329 2771886
2.2302778 -1.1815702 0.32935995 2771887
2.1207845 -1.1828949 0.40201205 2771888
2.1431425 -1.1813447 0.40121654 2771889
2.1673028 -1.1797347 0.39964238 2771890
-9.7481346 -2.023725 0.45420066 2772030
-9.7430983 -2.0272777 0.41130018 2772031
-5.220139 -1.7009177 0.47015592 2772050
-5.2221775 -1.7033006 0.4455978 2772051
-5.2201996 -1.7053283 0.42180815 2772052
-5.2229881 -1.7077888 0.39698309 2772053
-5.2178721 -1.7095391 0.3737945 2772054
-5.2194643 -1.7119004 0.34912539 2772055
-5.2326007 -1.7153238 0.32179269 2772056
-5.2155075 -1.715984 0.30123821 2772057
2.2214994 -1.1907072 0.27347833 2772594
2.2018075 -1.1899345 0.29729101 2772595
2.2495434 -1.1879396 0.28200638 2772596
2.240113 -1.1869888 0.29978329 2772597
2.2314401 -1.1860385 0.316964 2772598
2.2366259 -1.1848243 0.32624793 2772599
2.1337211 -1.1847878 0.40678227 2772601
2.1613781 -1.1831454 0.40326551 2772602
-9.7401218 -2.0092859 0.45387229 2772742
-9.7469769 -2.0137911 0.40966812 2772743
-5.2264667 -1.6940126 0.46829212 2772762
-5.2255707 -1.6961366 0.44430149 2772763
-5.2265167 -1.6984268 0.41989309 2772764
-5.2195539 -1.7000192 0.39710483 2772765
-5.2193098 -1.7022098 0.37288129 2772766
-5.2238183 -1.7048308 0.34756351 2772767
-5.21946 -1.706661 0.32415417 2772768
-5.2140284 -1.7083949 0.30098242 2772769
2.2726431 -1.1928428 0.24388897 2773304
2.1847806 -1.1931473 0.30760965 2773305
2.2290115 -1.1912881 0.29425076 2773306
2.2169218 -1.1903821 0.31342071 2773307
2.2038357 -1.1895123 0.33295387 2773308
2.2089543 -1.1883211 0.34211737 2773309
2.1142633 -1.189047 0.40642461 2773310
2.1462593 -1.1873771 0.40032789 2773311
2.1792238 -1.1856596 0.39401293 2773312
-9.7514048 -2.0467649 0.45569465 2773452
-9.7463665 -2.0503078 0.41277167 2773453
-5.2152972 -1.7127798 0.47202611 2773472
-5.2114816 -1.7146288 0.44867006 2773473
-5.2182913 -1.7174579 0.42310733 2773474
-5.2210808 -1.7199244 0.39828712 2773475
-5.2179132 -1.7218438 0.37468129 2773476
-5.229228 -1.7251174 0.34786391 2773477
-5.2268076 -1.7271162 0.32398605 2773478
-5.2427201 -1.7308452 0.29587024 2773479
2.2703393 -1.1848495 0.24417564 2774020
2.1807673 -1.1855139 0.30892363 2774021
2.1859877 -1.1843051 0.31798676 2774022
2.1963794 -1.182986 0.32410195 2774023
2.2111111 -1.1815666 0.32782808 2774024
2.2258487 -1.180137 0.33166018 2774025
2.142205 -1.179897 0.40156409 2774027
2.1804271 -1.1779336 0.39236546 2774028
-9.7475948 -2.0830309 0.45901904 2774168
-9.7425585 -2.0865541 0.41609859 2774169
-5.218545 -1.7394468 0.40021729 2774191
-5.2114863 -1.7409773 0.37745419 2774192
-5.2130804 -1.7433465 0.3528029 2774193
-5.2165022 -1.7458997 0.32767779 2774194
-5.2110729 -1.7475933 0.3045024 2774195
2.1776822 -1.1778481 0.30971813 2774731
2.2357333 -1.1753259 0.28831598 2774732
2.2262747 -1.1744393 0.30604151 2774733
2.2175729 -1.1735489 0.32317033 2774734
2.2227252 -1.1723113 0.33239469 2774735
2.1434758 -1.1722654 0.39990196 2774737
2.1852067 -1.1700627 0.38879231 2774738
-9.7451258 -2.0884833 0.45974356 2774878
-9.7460299 -2.0925257 0.41616419 2774879
-5.2105193 -1.7351362 0.47461385 2774898
-5.2057314 -1.7368742 0.4514662 2774899
-5.2203422 -1.7404834 0.42431244 2774900
-5.2143602 -1.7421141 0.40132639 2774901
-5.2150898 -1.744397 0.37690151 2774902
-5.2283463 -1.7479085 0.34966451 2774903
-5.2278681 -1.750088 0.32534486 2774904
-5.2243676 -1.7519739 0.30167341 2774905
2.2292745 -1.1765413 0.26716644 2775445
2.1966534 -1.1762109 0.29857332 2775446
2.2157717 -1.1746225 0.29971763 2775447
2.2158155 -1.1735082 0.31190655 2775448
2.2157936 -1.172401 0.32407317 2775449
2.2209408 -1.1711614 0.33328968 2775450
2.1149657 -1.1729412 0.40401551 2775451
2.1416864 -1.1711614 0.40078562 2775452
2.1684716 -1.1693573 0.39776748 2775453
-9.7544098 -2.05812 0.45616886 2775593
-9.7493696 -2.0616586 0.41322803 2775594
-5.2156916 -1.7188085 0.47231841 2775613
-5.2214708 -1.7259605 0.39856711 2775616
-5.2124624 -1.727327 0.37621734 2775617
-5.2257261 -1.7307955 0.34899354 2775618
-5.2262225 -1.7330674 0.3244724 2775619
-5.2236943 -1.7350557 0.3005918 2775620
2.1738257 -1.183313 0.31275004 2776158
2.1963556 -1.1817223 0.31180242 2776159
2.2015615 -1.1805027 0.32093328 2776160
2.2128215 -1.1791438 0.32664663 2776161
2.2240713 -1.1777787 0.33243567 2776162
2.1285753 -1.1789719 0.39733571 2776163
2.150949 -1.1773763 0.39657095 2776164
2.1742454 -1.1757394 0.39550376 2776165
-9.7535791 -2.0279028 0.45371041 2776305
-9.7485399 -2.031455 0.41078404 2776306
-5.2227745 -1.7053705 0.44547585 2776326
-5.2246976 -1.7077496 0.42087424 2776327
-5.2226086 -1.7097708 0.39705864 2776328
-5.2126245 -1.7110757 0.3749218 2776329
-5.2336731 -1.7152148 0.34598151 2776330
-5.228333 -1.7169514 0.32274365 2776331
-5.2228913 -1.7186786 0.29952875 2776332
2.1933448 -1.1892651 0.30226189 2776872
2.2011957 -1.1880105 0.30988234 2776873
2.2064133 -1.1868043 0.31903338 2776874
2.2159448 -1.1855119 0.32575133 2776875
2.2245843 -1.1842334 0.33301726 2776876
2.1426744 -1.1837981 0.4019306 2776878
2.1817808 -1.1818887 0.39226317 2776879
-9.7432451 -2.0190182 0.45415315 2777019
-9.7382116 -2.0225701 0.41127452 2777020
-5.2239752 -1.6989213 0.46905497 2777039
-5.2191744 -1.7006959 0.44586343 2777040
-5.2308564 -1.7039441 0.41925919 2777041
-5.2355843 -1.7065814 0.39397478 2777042
-5.2275348 -1.7080741 0.37136266 2777043
-5.2213345 -1.7097321 0.34836844 2777044
-5.2257237 -1.7123535 0.32299691 2777045
-5.2309628 -1.7150608 0.29734015 2777046
2.2192173 -1.1916353 0.2750929 2777583
2.1848216 -1.1911141 0.3074351 2777584
2.2117171 -1.1895258 0.30404714 2777585
2.2195671 -1.1882695 0.311759 2777586
2.2265186 -1.1870276 0.32000765 2777587
2.2316921 -1.1858188 0.32926917 2777588
2.1256845 -1.1868533 0.39996877 2777589
2.1629686 -1.1850373 0.39104047 2777590
2.2012458 -1.1831669 0.38193959 2777591
-9.7476006 -2.0138617 0.45319188 2777731
-9.7425642 -2.017417 0.41029608 2777732
-5.2134399 -1.6950073 0.47088349 2777751
-5.2106018 -1.6969532 0.44734356 2777752
-5.2281456 -1.7007113 0.41956514 2777753
-5.2250791 -1.7026486 0.39594305 2777754
-5.2219076 -1.7045783 0.37232563 2777755
-5.227386 -1.7072887 0.34678021 2777756
-5.220108 -1.7088537 0.32401076 2777757
-5.2146749 -1.710585 0.30083454 2777758
2.2727556 -1.1919068 0.24379128 2778297
2.1840303 -1.1922638 0.30801669 2778298
2.2447248 -1.1900978 0.2851783 2778299
2.2283299 -1.1892669 0.30689085 2778300
2.2109165 -1.1884775 0.32892919 2778301
2.2160521 -1.1872808 0.33812276 2778302
2.1196296 -1.1880778 0.40342984 2778303
2.1525142 -1.1863741 0.39687541 2778304
2.1872509 -1.1846032 0.38963449 2778305
-9.7655811 -2.0135317 0.4510918 2778445
-9.7664795 -2.01757 0.40744674 2778446
-5.2193899 -1.6945744 0.46962881 2778465
-5.2126408 -1.6961777 0.44685435 2778466
-5.2214031 -1.6991547 0.42088524 2778467
-5.2183433 -1.7010902 0.397293 2778468
-5.2171259 -1.7031922 0.37328419 2778469
-5.2148266 -1.7052002 0.34947792 2778470
-5.2269979 -1.7085176 0.32238364 2778471
-5.2244697 -1.710516 0.29850817 2778472
2.2244711 -1.1930708 0.27215627 2779010
2.1926806 -1.1924788 0.30301154 2779011
2.2299969 -1.190725 0.29367524 2779012
2.2213848 -1.1897597 0.31086963 2779013
2.2126639 -1.1888111 0.32796639 2779014
2.2178035 -1.1876142 0.33716765 2779015
2.1161332 -1.188496 0.40538204 2779016
2.1533961 -1.1867124 0.39641443 2779017
2.1907732 -1.1848931 0.38775 2779018
-9.7443666 -2.017411 0.4538776 2779158
-9.7393312 -2.0209637 0.41099459 2779159
-5.2162323 -1.6973133 0.47050411 2779178
-5.2241325 -1.7002131 0.44477659 2779179
-5.2202015 -1.702068 0.42138237 2779180
-5.2190919 -1.7041764 0.39738181 2779181
-5.2169003 -1.7061908 0.37357923 2779182
-5.2214103 -1.708814 0.34826997 2779183
-5.2257996 -1.7114344 0.32289836 2779184
-5.2300682 -1.714052 0.29746458 2779185
2.2175059 -1.1920127 0.27612159 2779723
2.1969371 -1.1912464 0.3004165 2779724
2.2281966 -1.1895781 0.294588 2779725
2.2230556 -1.1885543 0.3097955 2779726
2.2178228 -1.187543 0.32493547 2779727
2.2229753 -1.1863402 0.33415917 2779728
2.1515775 -1.1856115 0.39729288 2779730
2.1942248 -1.1836615 0.38576314 2779731
-9.7389822 -2.0225668 0.45487791 2779871
-9.7339506 -2.0261145 0.41201624 2779872
-5.2267346 -1.7012634 0.46861994 2779891
-5.2199788 -1.7028621 0.44581071 2779892
-5.2277579 -1.7057643 0.42001027 2779893
-5.2227426 -1.7075229 0.3968004 2779894
-5.2195735 -1.7094488 0.37319103 2779895
-5.2201896 -1.7117211 0.34872785 2779896
-5.2265234 -1.7145211 0.3229228 2779897
-5.2298198 -1.7170519 0.29770821 2779898
2.2165942 -1.1908125 0.27651009 2780441
2.1917019 -1.1901362 0.30331486 2780442
2.2654109 -1.1876675 0.27302414 2780443
2.2455935 -1.1869065 0.29680833 2780444
2.2256114 -1.1861749 0.32039708 2780445
2.2307825 -1.1849648 0.32965463 2780446
2.14539 -1.1845645 0.4005374 2780448
2.1862628 -1.1826316 0.38993081 2780449
-9.7411852 -2.0195441 0.45436183 2780589
-9.7411041 -2.0234945 0.41093242 2780590
-5.2083797 -1.7000966 0.44801757 2780610
-5.2249484 -1.7037776 0.42045045 2780611
-5.2189612 -1.7054491 0.39745966 2780612
-5.2128744 -1.7071109 0.37449872 2780613
-5.2300334 -1.7108805 0.34641555 2780614
-5.2305269 -1.7131503 0.32188144 2780615
-5.2231421 -1.7147037 0.29910472 2780616
2.2313063 -1.191241 0.26796225 2781152
2.2021284 -1.1906247 0.29734224 2781153
2.2178009 -1.1892294 0.30051252 2781154
2.2117655 -1.1882293 0.3161698 2781155
2.2056341 -1.1872427 0.33175203 2781156
2.2107565 -1.1860456 0.34092262 2781157
2.1160758 -1.1868711 0.40524513 2781158
2.1463192 -1.1852033 0.40011314 2781159
2.1766436 -1.1835078 0.39522338 2781160
-9.758419 -2.0155087 0.45199373 2781300
-9.753377 -2.0190659 0.40905038 2781301
-5.2163153 -1.6956671 0.47027233 2781320
-5.2220988 -1.7027873 0.39653096 2781323
-5.2189302 -1.7047148 0.37292594 2781324
-5.2302475 -1.7079499 0.34610483 2781325
-5.2249112 -1.7096906 0.32288462 2781326
-5.218502 -1.7113336 0.29991028 2781327
2.271044 -1.1917099 0.24474533 2781869
2.196147 -1.1918406 0.30092478 2781870
2.2386713 -1.1899831 0.28861082 2781871
2.2318184 -1.1889842 0.30485317 2781872
2.2248647 -1.1879997 0.32101321 2781873
2.2300341 -1.1867949 0.33026743 2781874
2.1402466 -1.1864128 0.40353438 2781876
2.1819885 -1.1844997 0.39243245 2781877
-9.7527494 -2.0109756 0.45226115 2782017
-9.7477093 -2.0145326 0.40934384 2782018
-5.2154832 -1.6933916 0.47026083 2782037
-5.2341256 -1.6972301 0.4423613 2782038
-5.2321362 -1.6992625 0.41852051 2782039
-5.2290664 -1.7012013 0.39488158 2782040
-5.2258911 -1.7031323 0.37124708 2782041
-5.2352567 -1.7061903 0.3448253 2782042
-5.2299151 -1.7079347 0.32158399 2782043
-5.2235012 -1.7095821 0.29858884 2782044
2.2366209 -1.1931608 0.26507133 2782579
2.2014024 -1.1926157 0.29798806 2782580
2.2188072 -1.1912062 0.30015871 2782581
2.2231994 -1.1900151 0.30988094 2782582
2.2284179 -1.1888098 0.31912762 2782583
2.2335956 -1.1876051 0.32839707 2782584
2.1464541 -1.1871301 0.40025195 2782586
2.1873324 -1.1852486 0.38965419 2782587
-9.7607632 -2.0111651 0.45135114 2782727
-9.7557192 -2.014724 0.40839919 2782728
-5.2203679 -1.7001725 0.3966957 2782750
-5.2152534 -1.7019264 0.37352046 2782751
-5.2343569 -1.7058523 0.34499756 2782752
-5.2309599 -1.7077711 0.32132232 2782753
-5.2206616 -1.7090669 0.29921594 2782754
2.2581282 -1.192878 0.25238627 2783296
2.1788738 -1.1930559 0.31101856 2783297
2.2560234 -1.1906303 0.27868566 2783298
2.2431314 -1.1897268 0.29846737 2783299
2.2292378 -1.1888604 0.3186048 2783300
2.2344179 -1.1876558 0.32787818 2783301
2.142894 -1.1872648 0.40213931 2783303
2.1793675 -1.1854762 0.39390585 2783304
-9.7534771 -2.0023949 0.53896135 2783442
-9.7538805 -2.0103312 0.45206761 2783444
-9.7488403 -2.0138869 0.40914586 2783445
-5.217556 -1.6931566 0.46979967 2783464
-5.2145658 -1.6994922 0.39790142 2783467
-5.20751 -1.70107 0.37517273 2783468
-5.2207847 -1.704469 0.34797233 2783469
-5.2251759 -1.7070831 0.32260445 2783470
-5.2197375 -1.7088161 0.29940706 2783471
2.2141163 -1.1936264 0.27817535 2784011
2.1883509 -1.1929348 0.30546841 2784012
2.2178569 -1.1913252 0.30060187 2784013
2.2179029 -1.1902122 0.31279466 2784014
2.2178829 -1.189106 0.32496521 2784015
2.2230356 -1.1879081 0.33418936 2784016
2.1170003 -1.1888539 0.40484253 2784017
2.1428618 -1.1873031 0.40211552 2784018
2.1687837 -1.1857295 0.39959279 2784019
-9.7410221 -2.0091932 0.45347762 2784159
-9.7399511 -2.013061 0.41016415 2784160
-5.1980295 -1.6913859 0.47367924 2784179
-5.2184854 -1.69978 0.39708564 2784182
-5.2133727 -1.7015331 0.3739188 2784183
-5.2198334 -1.7043235 0.34819654 2784184
-5.229084 -1.7073752 0.32173759 2784185
-5.2236419 -1.7091095 0.29852337 2784186
2.2658422 -1.1928256 0.24781404 2784723
2.1883364 -1.192968 0.30547538 2784724
2.1970417 -1.1917162 0.312576 2784725
2.2022493 -1.1905228 0.32170928 2784726
2.2135134 -1.1892189 0.32742769 2784727
2.224767 -1.1879088 0.33322176 2784728
2.1178613 -1.1888688 0.40436578 2784729
2.1577604 -1.1870402 0.39396736 2784730
2.1986659 -1.1851553 0.38341916 2784731
-9.7559757 -2.0100007 0.45197722 2784871
-9.7509346 -2.0135603 0.40904704 2784872
-5.223515 -1.6934372 0.4687463 2784891
-5.2283063 -1.7004758 0.39512154 2784894
-5.2270794 -1.7025812 0.37107021 2784895
-5.228662 -1.7049415 0.34636256 2784896
-5.2272148 -1.7070347 0.32227483 2784897
-5.2382784 -1.710263 0.29527384 2784898
2.2166369 -1.1937848 0.27673766 2785432
2.1830971 -1.1932175 0.30856347 2785433
2.2169237 -1.1915387 0.30118105 2785434
2.2221808 -1.1903335 0.31040078 2785435
2.2361069 -1.188971 0.31473279 2785436
2.2509077 -1.1875831 0.31867588 2785437
2.1366546 -1.1876118 0.40555391 2785439
2.17839 -1.1857233 0.39443815 2785440
-9.7460718 -2.0091777 0.45305082 2785580
-9.7410364 -2.0127337 0.41016376 2785581
-5.2088609 -1.6921339 0.47164661 2785600
-5.2244139 -1.7001096 0.39594427 2785603
-5.2163744 -1.7016057 0.37338373 2785604
-5.2354774 -1.7055315 0.34485671 2785605
-5.236939 -1.7078894 0.32008234 2785606
-5.2344012 -1.7098914 0.29616454 2785607
2.2718225 -1.1929055 0.24434307 2786147
2.1796348 -1.1932809 0.31057125 2786148
2.2420535 -1.1911151 0.28671893 2786149
2.2378156 -1.1900642 0.30149135 2786150
2.2334895 -1.1890249 0.31620425 2786151
2.2386804 -1.1878178 0.32549652 2786152
2.1143043 -1.1890965 0.40637162 2786153
2.1357729 -1.1876353 0.40603179 2786154
2.1564026 -1.1861739 0.4063338 2786155
-9.7589169 -2.0103657 0.45160913 2786295
-9.7647724 -2.0147953 0.40743443 2786296
-5.2166471 -1.6928971 0.47006184 2786315
-5.211854 -1.6946723 0.44690466 2786316
-5.2245202 -1.6979908 0.42013136 2786317
-5.2253561 -1.7002734 0.3957012 2786318
-5.2202373 -1.7020296 0.37250483 2786319
-5.235445 -1.7056078 0.34481981 2786320
-5.2359343 -1.7078776 0.3202644 2786321
-5.2256317 -1.7091762 0.29813689 2786322
2.2356265 -1.1934181 0.26557341 2786861
2.2116446 -1.1926832 0.29195535 2786862
2.2212753 -1.1914034 0.2986587 2786863
2.2256744 -1.1902113 0.30839232 2786864
2.2308991 -1.189005 0.31765023 2786865
2.2360833 -1.1877996 0.32693118 2786866
2.1393044 -1.1875025 0.40408564 2786868
2.1784081 -1.1856651 0.39440915 2786869
-9.7529736 -2.0098894 0.45226258 2787009
-9.7568493 -2.0141585 0.4083378 2787010
-5.2138081 -1.6948438 0.44651586 2787030
-5.2225704 -1.697818 0.42054209 2787031
-5.2312055 -1.7007924 0.39447021 2787032
-5.2280288 -1.7027245 0.37082729 2787033
-5.2442017 -1.7063924 0.34289366 2787034
-5.2349644 -1.7077903 0.32049015 2787035
-5.2266035 -1.7092642 0.29792032 2787036
2.2012696 -1.1928619 0.29798898 2787577
2.2273414 -1.1913059 0.29517323 2787578
2.2326241 -1.1900949 0.30443823 2787579
2.2413499 -1.1888214 0.31176201 2787580
2.2500517 -1.1875447 0.31913921 2787581
2.1134508 -1.1890562 0.40683278 2787582
2.1401811 -1.1874912 0.40361086 2787583
2.1660967 -1.1859202 0.40107656 2787584
-9.7500496 -2.0093999 0.45256409 2787724
-9.7450123 -2.0129561 0.40965971 2787725
-5.2166281 -1.699353 0.39754596 2787747
-5.2115173 -1.7011063 0.37438774 2787748
-5.2247887 -1.7045066 0.34717044 2787749
-5.2282043 -1.7070353 0.32200456 2787750
-5.2276173 -1.7092093 0.29767841 2787751
2.1778975 -1.1932912 0.31153974 2788289
2.236845 -1.1911854 0.28967437 2788290
2.2412827 -1.1899846 0.2994757 2788291
2.2474167 -1.1887538 0.3083106 2788292
2.2526414 -1.1875392 0.3176634 2788293
2.1366422 -1.187602 0.405516 2788295
2.1722224 -1.1858381 0.39773151 2788296
-9.7570124 -2.0098317 0.45181602 2788436
-9.7519712 -2.0133905 0.40888149 2788437
-5.2215991 -1.6931213 0.46908709 2788456
-5.232244 -1.7006749 0.39425001 2788459
-5.2241974 -1.702173 0.37165555 2788460
-5.2170281 -1.7037474 0.34889346 2788461
-5.2301693 -1.7071481 0.32157126 2788462
-5.2247262 -1.708884 0.29835281 2788463
2.2105732 -1.1938998 0.28024608 2789001
2.1839342 -1.1932213 0.30802655 2789002
2.2463639 -1.1910535 0.28419283 2789003
2.2264977 -1.190276 0.30789191 2789004
2.2073379 -1.1895121 0.33090439 2789005
2.212465 -1.1883202 0.34008303 2789006
2.1445229 -1.1874762 0.40120202 2789008
2.1862764 -1.1855838 0.39012066 2789009
-9.7530518 -2.0095384 0.4522391 2789149
-9.7480125 -2.0130956 0.40932176 2789150
-5.2070413 -1.6940483 0.44787794 2789170
-5.2236142 -1.6977091 0.42031771 2789171
-5.2234759 -1.6999044 0.3960982 2789172
-5.2183595 -1.70166 0.37291014 2789173
-5.2180052 -1.7038423 0.34867018 2789174
-5.2243428 -1.7066309 0.32287693 2789175
-5.230556 -1.7094181 0.2970047 2789176
2.2381616 -1.1934429 0.2640394 2789712
2.2064056 -1.1928351 0.29495406 2789713
2.2125566 -1.1916178 0.30362931 2789714
2.216934 -1.1904309 0.31332529 2789715
