# .PCD v0.7 - Point Cloud Data file format
VERSION 0.7
FIELDS x y z intensity
SIZE 4 4 4 4
TYPE F F F F
COUNT 1 1 1 1
WIDTH 1166
HEIGHT 1
VIEWPOINT 0 0 0 1 0 0 0
POINTS 1166
DATA ascii
1.9435395 -2.6329927 0.2638329 1812669
1.9092813 -2.6081061 0.27390757 1812670
2.0710216 -2.7248418 0.28868401 1813371
2.0839412 -2.7358732 0.26669574 1813372
2.0519998 -2.7128608 0.27306545 1813373
2.0428216 -2.7071147 0.26513907 1813374
2.0329218 -2.700814 0.25774348 1813375
2.0279429 -2.6982532 0.24717507 1813376
2.1563687 -2.8087847 0.23112862 1814801
4.3534427 -4.4259315 0.052624639 1816188
4.347218 -4.423502 0.029471196 1816189
4.3616614 -4.4366217 -0.0010550595 1816190
4.3552437 -4.4340582 -0.024264228 1816191
4.3611422 -4.4474788 0.073459044 1816894
4.3549957 -4.4450879 0.050221529 1816895
4.3526092 -4.4455395 0.025663305 1816896
4.3470616 -4.443604 0.0021872832 1816897
4.3421974 -4.4421864 -0.02154631 1816898
4.3395414 -4.4424434 -0.046114039 1816899
4.3444276 -4.4484224 -0.073558316 1816900
4.3375716 -4.4379177 0.055605374 1817607
4.3236933 -4.4296541 0.035171699 1817608
4.343483 -4.4469004 0.0028004122 1817609
4.3317347 -4.4402542 -0.018426994 1817610
4.3206859 -4.4341335 -0.039848819 1817611
4.3385649 -4.4499793 -0.072073683 1817612
4.3137007 -4.4199753 0.064017661 1818322
4.308301 -4.4181218 0.040747456 1818323
4.3097177 -4.4214354 0.015032597 1818324
4.3033772 -4.4188743 -0.0079571875 1818325
4.3045983 -4.4220519 -0.033739768 1818326
4.312583 -4.4303756 -0.062153593 1818327
4.2957764 -4.4101987 0.069811128 1819034
4.2996101 -4.4153342 0.0433934 1819035
4.3002696 -4.4180708 0.017990081 1819036
4.3069491 -4.4253864 -0.0096838698 1819037
4.302815 -4.4244986 -0.033520497 1819038
4.2955432 -4.421227 -0.056207437 1819039
4.2739196 -4.4349837 0.072771274 1819747
4.2723927 -4.4360366 0.048252571 1819748
4.2745862 -4.4399538 0.02234447 1819749
4.2690601 -4.4379416 -0.00085133832 1819750
4.2626925 -4.4352827 -0.02374474 1819751
4.2645955 -4.4389949 -0.04975402 1819752
4.2610874 -4.4385448 -0.073794417 1819753
4.2568936 -4.4642544 0.074019574 1820462
4.2318068 -4.4469543 0.057815202 1820463
4.2438865 -4.4585829 0.028472913 1820464
4.2384028 -4.4565415 0.0053325435 1820465
4.2396479 -4.4597492 -0.020319209 1820466
4.2294588 -4.4540405 -0.041742921 1820467
4.2222195 -4.4506321 -0.064253472 1820468
4.2266369 -4.4698796 0.0566037 1821170
4.2220225 -4.4684787 0.033223178 1821171
4.2188358 -4.4682016 0.0093004853 1821172
4.2163157 -4.4684525 -0.014908127 1821173
4.2114468 -4.4668584 -0.038273584 1821174
4.2049904 -4.464016 -0.061047193 1821175
4.2124834 -4.4726996 0.060133781 1821889
4.2093987 -4.472486 0.036249038 1821890
4.2077351 -4.4733973 0.011805619 1821891
4.2014608 -4.4706717 -0.010973791 1821892
4.194356 -4.4672894 -0.033438884 1821893
4.1954346 -4.4703794 -0.059047878 1821894
4.1950526 -4.473362 0.064711101 1822603
4.197268 -4.4773307 0.038977623 1822604
4.1813073 -4.466898 0.019818172 1822605
4.1765771 -4.4653645 -0.0034152481 1822606
4.1710138 -4.4631715 -0.026351545 1822607
4.1706171 -4.4650841 -0.051290382 1822608
4.1562505 -4.452837 0.077439882 1823321
4.171319 -4.46701 0.047266725 1823322
4.1651869 -4.4643435 0.024628051 1823323
4.1627326 -4.4646039 0.00061453378 1823324
4.1609392 -4.4653945 -0.023696495 1823325
4.1560593 -4.4637308 -0.046872333 1823326
4.1507158 -4.4584899 0.078227416 1824032
4.1469579 -4.4576888 0.054864857 1824033
4.1461215 -4.4592209 0.030399561 1824034
4.1414418 -4.4576907 0.0073066857 1824035
4.1419225 -4.4602847 -0.017766878 1824036
4.1423054 -4.4628081 -0.042886283 1824037
4.1433363 -4.4658575 -0.068344086 1824038
4.131043 -4.4382153 0.085686855 1824747
4.1250577 -4.4356327 0.063262694 1824748
4.1407928 -4.4503555 0.032850262 1824749
4.1308684 -4.4446445 0.011763826 1824750
4.1246252 -4.4418669 -0.010676014 1824751
4.1272831 -4.4461951 -0.03655399 1824752
4.1328239 -4.4528365 -0.063674621 1824753
4.1284714 -4.4129019 0.089330122 1825465
4.1255083 -4.4127364 0.065893501 1825466
4.1450715 -4.4303918 0.034151554 1825467
4.1291094 -4.4199567 0.015352358 1825468
4.133388 -4.4255424 -0.011004507 1825469
4.1405578 -4.4334311 -0.03860547 1825470
4.1363726 -4.4323287 -0.061927103 1825471
4.1469517 -4.4028192 0.085574329 1826181
4.1492696 -4.4068179 0.060191963 1826182
4.1431704 -4.4042196 0.037791133 1826183
4.1407685 -4.4045248 0.014013167 1826184
4.1382771 -4.4047642 -0.0097777667 1826185
4.1372023 -4.4061217 -0.034160178 1826186
4.130024 -4.4026814 -0.056222744 1826187
4.1239128 -4.4205847 0.089956589 1826895
4.1194453 -4.4192195 0.067059875 1826896
4.1156497 -4.4183893 0.043897439 1826897
4.1207891 -4.4246588 0.017370122 1826898
4.1070571 -4.4159408 -0.0021326584 1826899
4.1135015 -4.4232626 -0.029326605 1826900
4.1071124 -4.4203839 -0.051648609 1826901
4.079299 -4.4320498 0.076332368 1827613
4.0800443 -4.4348221 0.05161611 1827614
4.071722 -4.4302974 0.030215034 1827615
4.078259 -4.4377475 0.003179722 1827616
4.0720119 -4.4349003 -0.019063042 1827617
4.0723853 -4.437397 -0.043911017 1827618
4.0481915 -4.4459844 0.058710512 1828331
4.0421605 -4.4432406 0.036545336 1828332
4.044229 -4.4471006 0.011283954 1828333
4.0380354 -4.4442282 -0.010870189 1828334
4.0317664 -4.4412951 -0.032995198 1828335
4.0128856 -4.4467473 -0.028344233 1829049
4.0242767 -4.4582982 -0.057502724 1829050
1.9629771 -2.8283601 0.28466627 1830521
1.989399 -2.8522577 0.25314805 1830522
1.9043362 -2.7944038 0.27959165 1831240
1.8841398 -2.7952292 0.27517536 1831956
1.894733 -2.8057325 0.25408521 1831957
1.8773793 -2.7917211 0.25264972 1831958
1.8478246 -2.798748 0.2774094 1832670
1.8293984 -2.7834148 0.27707481 1832671
1.8247633 -2.7804489 0.26695511 1832672
1.7984804 -2.7886279 0.28950059 1833382
1.7926306 -2.7844465 0.28041303 1833383
1.7912843 -2.7843983 0.26801854 1833384
1.7547989 -2.7514126 0.29483935 1834099
1.7502761 -2.7484236 0.28505301 1834100
1.7360715 -2.7365279 0.28257388 1834101
1.6579697 -2.6539195 0.28354251 1834818
1.639587 -2.6245484 0.28998762 1835529
1.6901077 -2.680979 0.28418675 1837673
1.6840649 -2.6814008 0.28695199 1838388
1.6763315 -2.6754632 0.28010392 1838389
1.6694512 -2.680923 0.28164703 1839816
1.6749164 -2.6918769 0.27551091 1840531
1.6561958 -2.6818025 0.28787503 1841248
1.6533114 -2.6878521 0.28736892 1841962
1.6458896 -2.6898336 0.29034725 1842676
1.6407869 -2.6861563 0.2815949 1842677
1.6352134 -2.6912096 0.2826055 1843388
1.6383615 -2.7046976 0.27666625 1844101
1.6197948 -2.6970007 0.28824168 1844815
1.609772 -2.6884665 0.2836079 1844816
1.6150445 -2.7010677 0.28902218 1845529
1.6019588 -2.6895006 0.2869238 1845530
1.5905699 -2.7021008 0.28809994 1846964
1.5732927 -2.7027287 0.2838271 1847681
1.5495309 -2.6951182 0.2857042 1849116
1.5487694 -2.6959176 0.28576338 1849830
1.5404768 -2.6909697 0.29158789 1850549
1.5395405 -2.6945088 0.29083294 1851265
1.5379674 -2.697427 0.29053548 1851982
1.5228724 -2.689297 0.28857708 1852701
1.5176533 -2.6898074 0.29088652 1853417
1.5100991 -2.6964149 0.29205656 1854853
1.4991922 -2.7052104 0.29413286 1856999
1.4878888 -2.6944175 0.2915127 1857000
1.4800667 -2.6986742 0.29361832 1858431
-1.3097291 1.0737861 0.92599505 1919913
-1.3410692 1.0989727 0.93075168 1922796
-1.3386714 1.1523657 0.93250501 1925667
-1.3362091 1.1772135 0.94035751 1927826
-1.3361906 1.1885759 0.93814212 1928546
-1.3042258 1.2024268 0.93744254 1931425
-1.3012068 1.2064371 0.93686938 1932146
-1.2943577 1.2035477 0.93789274 1932864
-1.2854192 1.2029518 0.93863952 1933585
-1.2752074 1.2030188 0.93927842 1934305
-1.2660607 1.2046249 0.93941808 1935023
-1.2570058 1.2095981 0.93903118 1935743
-1.2472283 1.2126684 0.93901628 1936463
-1.2338109 1.2036591 0.9290449 1937182
-1.2331684 1.2035713 0.94174629 1937183
-1.22997 1.2090387 0.92817175 1937900
-1.2316699 1.2132518 0.93986374 1937901
-1.2247037 1.2118399 0.92791301 1938621
-1.2236011 1.2108916 0.94083208 1938622
-1.2075497 1.2042941 0.93058622 1939341
-1.2129248 1.2154063 0.94057548 1939342
-1.1963332 1.207938 0.9305408 1940061
-1.18409 1.2043676 0.93200982 1940782
-1.1821951 1.2130407 0.93032193 1941503
-1.1738883 1.2096488 0.93161565 1942223
-1.1701062 1.2093816 0.93189824 1942944
-1.1643953 1.2045741 0.93315053 1943665
-1.1633584 1.2087826 0.91982204 1944385
-1.1632113 1.2095754 0.93220586 1944386
-1.1541023 1.2003256 0.92222071 1945104
-1.1539525 1.2011073 0.93455344 1945105
-1.1501991 1.2023026 0.92205751 1945825
-1.1496037 1.2022139 0.9346 1945826
-1.1355443 1.1997918 0.9235177 1946545
-1.1362785 1.2023082 0.93539232 1946546
-1.1252977 1.2113985 0.92169428 1947265
-1.126026 1.2139239 0.93359417 1947266
-1.1142296 1.2135366 0.92191392 1947986
-1.1140832 1.2143105 0.93422127 1947987
-1.1137265 1.206181 0.92352265 1948706
-1.1127079 1.2051975 0.93622065 1948707
-1.119301 1.2110682 0.92211193 1949426
-1.1161021 1.2057168 0.93589056 1949427
-1.1074858 1.2124614 0.92254901 1950145
-1.1077713 1.2141082 0.93462896 1950146
-1.0866745 1.2126809 0.92379427 1950863
-1.0873802 1.2152008 0.93562526 1950864
-1.0695267 1.2167602 0.91153824 1951583
-1.0685641 1.215804 0.92421347 1951584
-1.0696797 1.2192063 0.935812 1951585
-1.0585483 1.2164507 0.91222543 1952304
-1.0588431 1.2181362 0.92423397 1952305
-1.0578635 1.2171212 0.93687838 1952306
-1.0499189 1.2214836 0.91162902 1953025
-1.0489702 1.2205169 0.92428797 1953026
-1.0484121 1.2203826 0.93671298 1953027
-1.0446233 1.2260542 0.9109804 1953742
-1.0407994 1.2188884 0.92515606 1953743
-1.0414784 1.2214068 0.93692642 1953744
-1.0378295 1.2216637 0.91242713 1954462
-1.0356576 1.2180294 0.92571133 1954463
-1.0379752 1.2240938 0.93662411 1954464
-1.0298332 1.2145749 0.91447163 1955183
-1.0325713 1.22157 0.92512751 1955184
-1.0352468 1.2163986 0.91375285 1955904
-1.0330737 1.2127585 0.92701155 1955905
-1.0392184 1.2145967 0.91391337 1956624
-1.0390954 1.2153879 0.92609477 1956625
-1.0342318 1.2125599 0.91462767 1957344
-1.0328771 1.2106892 0.92743838 1957345
-1.0193108 1.2138864 0.91523236 1958063
-1.0191876 1.2146683 0.92737556 1958064
-1.0056094 1.2170514 0.90303189 1958780
-1.00591 1.2187704 0.9149521 1958781
-1.0065902 1.2213312 0.92665946 1958782
-0.997226 1.2182814 0.9154802 1959499
-0.99630719 1.2172756 0.92803413 1959500
-0.99002171 1.2185166 0.9035548 1960218
-0.98913014 1.2175586 0.91611439 1960219
-0.99019629 1.221009 0.92757118 1960220
-0.98200792 1.2198709 0.90374267 1960939
-0.98190826 1.2206938 0.91585314 1960940
-0.98100036 1.2196792 0.92839044 1960941
-0.97320026 1.2247243 0.90319824 1961659
-0.97310174 1.2255473 0.91531307 1961660
-0.97454226 1.2299002 0.92655736 1961661
-0.96090764 1.2214704 0.90464294 1962378
-0.96235418 1.225868 0.91584116 1962379
-0.96223456 1.2266364 0.92793351 1962380
-0.95515102 1.2302297 0.90298289 1963097
-0.95428693 1.2292571 0.91553074 1963098
-0.95493585 1.2318208 0.92719012 1963099
-0.94591451 1.2298639 0.90361756 1963818
-0.94505578 1.2288845 0.91614866 1963819
-0.94417542 1.2278509 0.92865723 1963820
-0.93631196 1.2264571 0.90494025 1964539
-0.93659198 1.2281657 0.91677892 1964540
-0.93647337 1.2289256 0.9288373 1964541
-0.93163502 1.2262681 0.90524113 1965260
-0.93153685 1.2270758 0.91729224 1965261
-0.931418 1.2278327 0.92933792 1965262
-0.92692006 1.2261047 0.90555137 1965981
-0.92532068 1.2233095 0.91847825 1965982
-0.92595196 1.2258627 0.9300648 1965983
-0.91330916 1.2305744 0.90530568 1966701
-0.91210097 1.2286723 0.91800785 1966702
-0.91272414 1.2312288 0.9295941 1966703
-0.89203167 1.2306547 0.90647858 1967422
-0.89193469 1.2314502 0.91848314 1967423
-0.8925457 1.2340065 0.93004775 1967424
-0.87821221 1.244406 0.90407169 1968142
-0.875974 1.2397656 0.91744053 1968143
-0.87729079 1.2441444 0.92857832 1968144
-0.87642151 1.2398708 0.90518415 1968862
-0.8763271 1.2406689 0.91720146 1968863
-0.87621331 1.2414166 0.92921323 1968864
-0.87742668 1.2426285 0.90448612 1969583
-0.87518823 1.2379863 0.91784656 1969584
-0.87328529 1.2341901 0.930933 1969585
-0.86818099 1.2315925 0.90754271 1970304
-0.86879623 1.2341956 0.91906977 1970305
-0.86868101 1.2349342 0.93104333 1970306
-0.8585543 1.2300591 0.90842688 1971025
-0.85986954 1.2344769 0.91948891 1971026
-0.85275453 1.2384993 0.90679008 1971746
-0.85265994 1.2392867 0.91876501 1971747
-0.85184604 1.2382015 0.93116975 1971748
-0.85229081 1.2376319 0.90701485 1972467
-0.85219622 1.2384186 0.91898549 1972468
-0.85208255 1.2391543 0.93095058 1972469
-0.85017759 1.2322024 0.90840894 1973187
-0.85113156 1.2357132 0.91968834 1973188
-0.85031688 1.2346239 0.93207604 1973189
-0.84592843 1.2358866 0.90780342 1973908
-0.84652972 1.2384902 0.91931313 1973909
-0.83249718 1.2356845 0.90855324 1974628
-0.83205849 1.2355487 0.92070788 1974629
-0.81979424 1.2372345 0.90887803 1975349
-0.81902122 1.2361799 0.92124224 1975350
-0.80852723 1.2464874 0.90735632 1976070
-0.80609286 1.2408551 0.92085409 1976071
-0.79309654 1.2447041 0.90848845 1976791
-0.79399467 1.2482268 0.91973215 1976792
-0.78004164 1.2399861 0.9102239 1977512
-0.77962357 1.2398291 0.92231965 1977513
-0.77936864 1.2505367 0.90785813 1978232
-0.77570808 1.2411963 0.92222363 1978233
-0.76891655 1.2335434 0.91229033 1978953
-0.76946974 1.2361343 0.92367554 1978954
-0.76433551 1.2330813 0.91265917 1979674
-0.76681584 1.2411923 0.92269921 1979675
-0.76261842 1.2408646 0.91093403 1980395
-0.76252723 1.2416202 0.92278606 1980396
-0.75713235 1.2396427 0.91148371 1981116
-0.7570411 1.2403953 0.92332298 1981117
-0.74850065 1.235352 0.91290623 1981836
-0.75030559 1.2416302 0.92337817 1981837
-0.74255663 1.239393 0.91226304 1982557
-0.74309343 1.2419859 0.92363513 1982558
-0.73554015 1.24274 0.91183096 1983278
-0.73265207 1.2351725 0.92566109 1983279
-0.72637028 1.2416303 0.91246754 1983999
-0.72720486 1.2451487 0.9236033 1984000
-0.71800685 1.2443587 0.91226017 1984720
-0.71639431 1.2404722 0.92518198 1984721
-0.7055307 1.2452769 0.91262549 1985441
-0.7051428 1.2450894 0.92464155 1985442
-0.69289213 1.2461991 0.9129979 1986162
-0.69339788 1.2487926 0.92433089 1986163
-0.68793589 1.2487617 0.91264814 1986883
-0.68696791 1.246711 0.92510301 1986884
-0.68734759 1.2469066 0.91310698 1987602
-0.6872617 1.2476416 0.92488277 1987603
-0.20859037 -0.31441742 0.70785511 1988215
-0.6852833 1.2404156 0.91471028 1988323
-0.68549025 1.2420731 0.9262327 1988324
-0.68396544 1.2448936 0.91372722 1989044
-0.6838792 1.2456253 0.92549032 1989045
-0.67905456 1.2382538 0.91547567 1989765
-0.6765272 1.2430927 0.91445017 1990486
-0.66977775 1.240062 0.91545027 1991207
-0.67113584 1.2454394 0.92605662 1991208
-0.66564047 1.2453798 0.91440177 1991928
-0.64954913 1.2400203 0.91633582 1992649
-0.63552928 1.2461718 0.91556394 1993370
-0.62205315 1.240923 0.91737622 1994091
-0.62005544 1.2485777 0.91568953 1994812
-0.61562604 1.2477829 0.91603786 1995533
-0.60980874 1.238291 0.91847271 1996254
-0.60722965 1.2390058 0.91839868 1996974
-0.60428613 1.2458864 0.91690564 1997695
-0.59108919 1.2424586 0.91825932 1998416
-0.58001304 1.2474915 0.91758752 1999137
-0.57462204 1.2469109 0.91792339 1999858
-0.57354224 1.2481889 0.91764617 2000578
-0.56993115 1.2441154 0.91875631 2001299
-0.55806196 1.2512496 0.91756886 2002020
-0.54462183 1.2526994 0.9177742 2002740
-0.53590804 1.2498744 0.91875714 2003460
-0.5342508 1.2543137 0.91780573 2004179
-0.52951181 1.2464647 0.91981447 2004900
-0.52328575 1.2490073 0.91944754 2005618
-0.51504678 1.2440106 0.92092347 2006338
-0.50932199 1.2513993 0.91940081 2007059
-0.500314 1.2485595 0.92042929 2007780
-0.49243098 1.2494084 0.92050463 2008501
0.010320267 -7.885561 0.14863968 2073483
-0.0031907754 -8.0795593 0.13998157 2074203
-0.003021735 -8.0734739 0.11009562 2074204
-0.0052121542 -8.113842 0.13305987 2074924
-0.0054172785 -8.1331902 0.097779922 2074925
-0.0056359544 -8.1481619 0.12622637 2075645
-0.0055502206 -8.147892 0.094830677 2075646
-0.015082066 -8.1391859 0.127974 2076366
-0.014913008 -8.1340275 0.097625405 2076367
-0.049265016 -8.1512747 0.12526852 2077087
-0.048891287 -8.1382723 0.096478432 2077088
-0.082841955 -8.1426506 0.12692305 2077808
-0.10223483 -8.1470089 0.12586884 2078529
-0.1171528 -8.1553602 0.12394165 2079250
-0.13323201 -8.1577826 0.12333564 2079971
-0.15601845 -8.1609116 0.12253532 2080692
-0.17836416 -8.1570158 0.12249409 2081413
-0.20715344 -8.161622 0.12085244 2082134
-0.24074006 -8.1670618 0.15078717 2082854
-0.24026866 -8.1610374 0.1204873 2082855
-0.27182829 -8.1634884 0.15105574 2083575
-0.27147302 -8.1604052 0.12017141 2083576
-0.28297314 -8.1648455 0.15066501 2084296
-0.28239393 -8.1578455 0.12056296 2084297
-0.29382133 -8.1622734 0.15104067 2085017
-0.29311651 -8.1533194 0.12134229 2085018
-0.30693915 -8.1595058 0.15108635 2085735
-0.30638298 -8.1534891 0.12080397 2085736
-0.32225937 -8.16747 0.14955989 2086456
-0.32138824 -8.1565561 0.12022747 2086457
-0.33736435 -8.1714373 0.14849852 2087177
-0.33676904 -8.1654129 0.11815634 2087178
-0.35955051 -8.1729231 0.14769909 2087898
-0.3593764 -8.1737442 0.11596038 2087899
-0.38211805 -8.1743135 0.14690435 2088619
-0.38092631 -8.1604633 0.11811882 2088620
-0.40454629 -8.1746826 0.14648916 2089340
-0.40372375 -8.1667013 0.11650875 2089341
-0.4264437 -8.1691113 0.14715664 2090061
-0.42551333 -8.1601591 0.11739147 2090062
0.1762605 -0.28048557 0.7053678 2090574
0.17783709 -0.26099771 0.69592959 2090575
-0.44881618 -8.1653996 0.14743529 2090782
-0.44792449 -8.1574297 0.11748111 2090783
-0.46828511 -8.1717339 0.14605999 2091503
-0.4671247 -8.1608295 0.1166648 2091504
0.18441689 -0.2585029 0.69340634 2092017
-0.48744109 -8.1760111 0.14465453 2092224
-0.4860788 -8.1631508 0.11562975 2092225
0.18734097 -0.25797805 0.69278151 2092738
0.18810908 -0.24905552 0.6925317 2092739
-0.50182801 -8.1747293 0.14431463 2092945
-0.50102192 -8.1687078 0.1139055 2092946
-0.5049904 -8.1685429 0.14545053 2093666
-0.50418031 -8.1625261 0.11506712 2093667
-0.50858647 -8.1671963 0.14534768 2094387
-0.50734603 -8.1562977 0.11595818 2094388
-0.51950288 -8.1830082 0.17350422 2095107
-0.51877344 -8.178093 0.14285849 2095108
-0.51785928 -8.1710911 0.11262631 2095109
0.18864976 -0.29419416 0.70918381 2095620
0.19011965 -0.27858305 0.70287615 2095621
0.19084896 -0.27048594 0.70316249 2095622
0.1923274 -0.25475875 0.69706523 2095623
-0.5303306 -8.1770926 0.17435251 2095828
-0.52985358 -8.1751146 0.14314747 2095829
-0.52953964 -8.1749496 0.11153853 2095830
0.19149506 -0.28176069 0.70549434 2096342
0.19352785 -0.26078126 0.69476479 2096343
0.19389345 -0.25643983 0.69836932 2096344
-0.54268217 -8.1759596 0.17435695 2096549
-0.54228634 -8.1749592 0.14295824 2096550
-0.54071045 -8.161129 0.11411607 2096551
0.19336109 -0.28194147 0.7055164 2097063
0.19481422 -0.26703289 0.69996458 2097064
-0.5611636 -8.1771603 0.1736332 2097270
-0.56140411 -8.1829958 0.14086613 2097271
-0.55996782 -8.171113 0.11158559 2097272
0.19765821 -0.26653883 0.69934505 2097785
0.19883855 -0.25460914 0.69648772 2097786
-0.58110237 -8.1890097 0.17071362 2097991
-0.58020866 -8.183115 0.1402109 2097992
-0.57749891 -8.1585522 0.1134962 2097993
0.20183769 -0.25336072 0.69522583 2098507
-0.60326385 -8.1759243 0.17263138 2098712
-0.60273546 -8.1739464 0.14140096 2098713
0.20348009 -0.27171558 0.70329171 2099227
0.2052426 -0.25524732 0.69655234 2099228
0.20616062 -0.24633501 0.69634688 2099229
-0.62591231 -8.1379938 0.17904586 2099433
-0.62730807 -8.1545858 0.14428805 2099434
-0.62776721 -8.1622343 0.1111422 2099435
0.20692483 -0.27718696 0.70044005 2099947
0.20857476 -0.26227519 0.69491702 2099948
0.20891042 -0.25869974 0.69916588 2099949
-0.64294457 -8.0591545 0.16249691 2100155
-0.6419583 -8.0532379 0.1325306 2100156
0.21051697 -0.2798757 0.70243615 2100668
0.21167931 -0.26952073 0.70078593 2100669
0.21302654 -0.25761393 0.6979239 2100670
-0.6530028 -7.9859724 0.17648028 2100876
-0.65157193 -7.9762239 0.14761905 2100877
0.21271077 -0.28524539 0.69961727 2101388
0.21343675 -0.2786763 0.70116729 2101389
0.21397677 -0.27361614 0.70405334 2101390
-0.67116052 -7.9858508 0.17581953 2101597
-0.66881102 -7.9683127 0.14853548 2101598
0.21755244 -0.26787442 0.6989072 2102110
0.21829756 -0.26128185 0.7005617 2102111
0.21961732 -0.25011265 0.69841647 2102112
-0.69735831 -8.0074091 0.20173997 2102316
-0.69529212 -7.9929047 0.17371652 2102317
-0.6932137 -7.9782872 0.14579555 2102318
0.21823497 -0.29197976 0.70492095 2102829
0.2189005 -0.28619131 0.70709515 2102830
0.22229463 -0.25867927 0.69803292 2102832
0.22395076 -0.24521832 0.6939804 2102833
-0.73607099 -8.0877504 0.18507168 2103037
-0.72919118 -8.0342302 0.16443905 2103038
-0.72490752 -8.0020685 0.13989045 2103039
0.22812128 -0.24881092 0.69659656 2103554
-0.77610379 -8.1717682 0.16765295 2103758
-0.7708056 -8.1328039 0.14372754 2103759
-0.76281482 -8.0723705 0.12448171 2103760
0.22863753 -0.2804943 0.70135164 2104272
0.23082381 -0.26411319 0.69453496 2104273
0.2317542 -0.25675237 0.69557005 2104274
0.23268518 -0.24938208 0.6966542 2104275
-0.79711819 -8.1868744 0.164038 2104479
-0.79607671 -8.1819649 0.13324569 2104480
-0.79264736 -8.1584511 0.10623907 2104481
0.23227198 -0.27430218 0.70298213 2104993
0.2351547 -0.25333971 0.69239026 2104994
0.23545983 -0.25052157 0.69733262 2104995
-0.81574255 -8.1804466 0.19659057 2105198
-0.81584859 -8.1844444 0.16411206 2105199
-0.8137657 -8.1717577 0.13487206 2105200
-0.8126868 -8.1667252 0.104132 2105201
0.23617437 -0.26715538 0.69656092 2105714
0.2374731 -0.25753561 0.69565552 2105715
0.23877443 -0.24788962 0.69481927 2105716
0.24052016 -0.23516583 0.69150496 2105717
0.24171697 -0.22622372 0.69145459 2105718
-0.83376497 -8.1859522 0.19490929 2105919
-0.83283162 -8.1821566 0.16391464 2105920
-0.83239973 -8.1821165 0.13215236 2105921
-0.82961255 -8.1644459 0.10393527 2105922
0.23674852 -0.28160489 0.70147103 2106434
0.23840113 -0.26976848 0.69853652 2106435
0.23916373 -0.26394644 0.70083904 2106436
0.2410474 -0.2505261 0.69677544 2106437
0.242937 -0.2370521 0.69281465 2106438
-0.84781224 -8.1810503 0.19541995 2106640
-0.84646893 -8.1743422 0.16500765 2106641
-0.84589976 -8.1733351 0.13346526 2106642
-0.8442567 -8.1644192 0.10349315 2106643
0.23968187 -0.27740136 0.69760573 2107155
0.24136229 -0.26555169 0.6946913 2107156
0.24213886 -0.25971451 0.69701385 2107157
0.24371214 -0.24856073 0.69489098 2107158
0.24528939 -0.23737013 0.69285083 2107159
0.24687053 -0.2261433 0.69089371 2107160
-0.86330432 -8.1828604 0.19450247 2107361
-0.86301339 -8.1839323 0.16255476 2107362
-0.86176354 -8.1780586 0.13193156 2107363
-0.86076307 -8.1739941 0.10093821 2107364
0.24305891 -0.26964027 0.69795758 2107877
0.24442287 -0.26003516 0.69704616 2107878
0.24602097 -0.24888483 0.69492364 2107879
0.24692681 -0.24227129 0.69670451 2107880
-0.87122244 -8.1797523 0.19480868 2108082
-0.87038809 -8.1769371 0.16362892 2108083
-0.86885846 -8.1691265 0.13341966 2108084
-0.8660959 -8.1524496 0.10503951 2108085
0.24161522 -0.2889435 0.70000631 2108596
0.24252263 -0.28239742 0.70155805 2108597
0.24377806 -0.2735855 0.70121127 2108598
0.24678081 -0.25340414 0.69127464 2108599
0.24769557 -0.24678688 0.69302309 2108600
0.24884431 -0.2386419 0.69354063 2108601
0.25046381 -0.2274233 0.69158053 2108602
-0.87772304 -8.1718979 0.19614296 2108803
-0.87224597 -8.1360312 0.17144696 2108804
-0.83433861 -7.8688726 0.19323801 2108805
0.24284156 -0.28836474 0.6993733 2109317
0.24375629 -0.28181699 0.70092839 2109318
0.24583994 -0.26772812 0.69605726 2109319
0.2465238 -0.26265636 0.69901693 2109320
0.24873486 -0.24772218 0.69368368 2109321
0.24989209 -0.23958124 0.69419777 2109322
0.24804674 -0.26881087 0.69673437 2110040
0.24969365 -0.25769418 0.69454324 2110041
0.25158364 -0.24502234 0.69115442 2110042
0.25300011 -0.23534952 0.69040877 2110043
0.25381857 -0.22947375 0.69289964 2110044
0.2543301 -0.2658582 0.69357067 2110761
0.25554696 -0.25775886 0.69397098 2110762
0.25676525 -0.24964455 0.69442719 2110763
0.2589792 -0.23542696 0.68984604 2110764
0.26020309 -0.22726187 0.69044131 2110765
0.25684199 -0.28605139 0.70306081 2111481
0.2579681 -0.27876803 0.70400292 2111482
0.25999105 -0.26619092 0.70049071 2111483
0.26266211 -0.24977732 0.69387478 2111484
0.26624441 -0.22796558 0.68293232 2111485
0.26738784 -0.2205402 0.68419838 2111486
0.26801366 -0.21617003 0.68803346 2111487
0.269936 -0.20412791 0.6856268 2111488
0.26216424 -0.28070375 0.69791633 2112202
0.26345462 -0.27265137 0.69823921 2112203
0.26395816 -0.26910961 0.70247692 2112204
0.26748991 -0.24817272 0.69201344 2112205
0.26852483 -0.24156466 0.6938135 2112206
0.27048767 -0.22961509 0.69122422 2112207
0.26459065 -0.2895968 0.7051363 2112923
0.268053 -0.26956373 0.69507855 2112924
0.26897421 -0.26374856 0.69740343 2112925
0.27097392 -0.25188237 0.6946454 2112926
0.2725732 -0.24225198 0.69388622 2112927
0.27471837 -0.22954811 0.69066423 2112928
0.26871762 -0.28798217 0.70325035 2113644
0.27061322 -0.27695996 0.70096129 2113645
0.27388883 -0.25836709 0.69232309 2113646
0.27552268 -0.24875443 0.69151175 2113647
0.27605313 -0.24518679 0.69586128 2113648
0.27852237 -0.2309759 0.69136357 2113649
0.28044295 -0.21976475 0.68949503 2113650
0.28348437 -0.20238237 0.68269968 2113651
0.27260849 -0.28552958 0.7006917 2114365
0.27580076 -0.26775169 0.69259965 2114366
0.2763423 -0.26419052 0.69686788 2114367
0.27898946 -0.24931325 0.69155616 2114368
0.28009453 -0.24271391 0.69336063 2114369
0.28261375 -0.22850028 0.688878 2114370
0.27587155 -0.28608689 0.70074224 2115086
0.27912334 -0.26831922 0.69265145 2115087
0.2809602 -0.25798798 0.69113284 2115088
0.2828013 -0.24762544 0.68969029 2115089
0.28392833 -0.24102165 0.69150519 2115090
0.28678399 -0.22528638 0.68576783 2115091
0.28719327 -0.22246085 0.69085664 2115092
0.28338218 -0.27299055 0.6959787 2115808
0.28512114 -0.2634342 0.69508696 2115809
0.28715792 -0.25234294 0.69298512 2115810
0.28860945 -0.24424379 0.69351107 2115811
0.29139495 -0.22929111 0.68839723 2115812
0.29359585 -0.21732616 0.68591851 2115813
0.29535574 -0.20761703 0.68540865 2115814
0.28557321 -0.29460385 0.69937992 2116527
0.28931856 -0.27542818 0.68990076 2116528
0.2902095 -0.27036631 0.69285494 2116529
0.29231074 -0.25930479 0.69069511 2116530
0.29411346 -0.24971354 0.68989694 2116531
0.29530993 -0.24312223 0.69171286 2116532
0.296812 -0.23500964 0.69230598 2116533
0.30135846 -0.21109818 0.68740082 2116535
0.30364046 -0.19908239 0.68508422 2116536
0.29232436 -0.29049525 0.69491494 2117248
0.29339367 -0.28472084 0.69715136 2117249
0.29586267 -0.27222276 0.69360799 2117250
0.29755878 -0.26342601 0.69337428 2117251
0.29972735 -0.25235072 0.69128478 2117252
0.3006452 -0.24728267 0.69436687 2117253
0.30187604 -0.24070597 0.69621265 2117254
0.3054758 -0.22271262 0.6886611 2117255
0.28985593 -0.29336488 0.70491785 2117970
0.29461423 -0.26968521 0.69164163 2117971
0.29614305 -0.26162761 0.69206041 2117972
0.29860535 -0.2490375 0.68869811 2117973
0.29967329 -0.24320136 0.69115728 2117974
0.3013649 -0.23433375 0.69112146 2117975
0.30321568 -0.22468579 0.69051927 2117976
0.29079419 -0.28038326 0.69384396 2118691
0.29077592 -0.27982622 0.70065546 2118692
0.29167116 -0.27480692 0.7035988 2118693
0.29579744 -0.25397718 0.69314134 2118694
0.29793379 -0.24286674 0.6911239 2118695
0.30131435 -0.2256507 0.68412727 2118696
0.30237761 -0.21977691 0.68670911 2118697
0.29266542 -0.27475503 0.69614691 2119413
0.29526356 -0.26146337 0.69204241 2119414
0.29756075 -0.24962428 0.68931949 2119415
0.2989338 -0.24227834 0.690503 2119416
0.29984099 -0.23719944 0.69363427 2119417
0.302618 -0.22299312 0.68924218 2119418
0.30446509 -0.21331407 0.68871683 2119419
0.29428184 -0.28415388 0.69651675 2120133
0.29754359 -0.2679199 0.68974626 2120134
0.29877973 -0.26135737 0.69146103 2120135
0.29954407 -0.25704899 0.69513673 2120136
0.30093628 -0.2497322 0.69629043 2120137
0.30359465 -0.23634224 0.69243181 2120138
0.30546802 -0.22670408 0.69182336 2120139
0.30157006 -0.26559776 0.68722373 2120855
0.3039453 -0.25378326 0.68445319 2120856
0.30584744 -0.24418259 0.68369013 2120857
0.30727211 -0.23682101 0.68490481 2120858
0.30853665 -0.23020856 0.68680173 2120859
0.30996224 -0.22283301 0.68811226 2120860
0.31203565 -0.21239784 0.68696898 2120861
0.31411335 -0.20193349 0.68590277 2120862
0.31700879 -0.18759899 0.68181872 2120863
0.32138154 -0.16627102 0.67230594 2120864
0.30504176 -0.26317751 0.6846953 2121576
0.30664366 -0.25510272 0.68515205 2121577
0.30727473 -0.25152296 0.68950099 2121578
0.30952775 -0.24041827 0.68750584 2121579
0.31129712 -0.23154891 0.6874916 2121580
0.31355974 -0.22038104 0.68565291 2121581
0.31631982 -0.20689064 0.68202031 2121582
0.317772 -0.19947132 0.68347162 2121583
0.32332459 -0.17228313 0.67667514 2121585
0.32627842 -0.15784249 0.67282271 2121586
0.32973978 -0.14102109 0.66725695 2121587
0.33237818 -0.12802337 0.66485119 2121588
0.34035721 -0.089367017 0.65076691 2121590
0.3433578 -0.074633285 0.64752746 2121591
0.30251548 -0.2889069 0.69928801 2122296
0.30690297 -0.26823956 0.68863064 2122297
0.30819631 -0.2616826 0.69035298 2122298
0.31014693 -0.25211725 0.68956059 2122299
0.3119365 -0.24328056 0.68947375 2122300
0.31538191 -0.22685799 0.68312383 2122301
0.31635273 -0.22175206 0.68634278 2122302
0.31815267 -0.21284437 0.68646216 2122303
0.32062212 -0.20085937 0.6841554 2122304
0.32443553 -0.18269613 0.67698783 2122305
0.32876566 -0.1621414 0.66811985 2122306
0.33328015 -0.14071795 0.65880716 2122307
0.33561942 -0.129273 0.65758204 2122308
0.33830154 -0.11624094 0.65523225 2122309
0.34319422 -0.093020856 0.64516002 2122310
0.34776497 -0.071259253 0.63647509 2122311
0.31002301 -0.2766611 0.69517666 2123018
0.31335241 -0.26116604 0.68915552 2123019
0.31501281 -0.25310519 0.68964934 2123020
0.31734946 -0.24201749 0.68765587 2123021
0.3191846 -0.23316151 0.68764299 2123022
0.32220969 -0.21897626 0.68328947 2123023
0.32507414 -0.20549595 0.67967254 2123024
0.32879984 -0.18814559 0.67304862 2123025
0.33031487 -0.1806846 0.67460912 2123026
0.33629045 -0.15321605 0.66021818 2123027
0.34091499 -0.1317794 0.65095282 2123028
0.34452188 -0.11488961 0.64551407 2123029
0.34796709 -0.098709576 0.64081484 2123030
0.35697263 -0.057516292 0.61699164 2123031
0.31636232 -0.28479964 0.69368422 2123738
0.31790149 -0.277547 0.69468683 2123739
0.32031003 -0.26655298 0.69252616 2123740
0.32307312 -0.25402388 0.68916982 2123741
0.32584441 -0.24144754 0.68590975 2123742
0.32792291 -0.23184286 0.68527597 2123743
0.33070812 -0.21918464 0.68219614 2123744
0.3342061 -0.20344089 0.67671126 2123745
0.33700883 -0.1906814 0.67384005 2123746
0.34247771 -0.16639797 0.66178536 2123747
0.34672478 -0.14736709 0.65423948 2123748
0.35276937 -0.12054519 0.64072853 2123749
0.35723016 -0.10054576 0.6329174 2123750
0.3260712 -0.27775329 0.69355124 2124460
0.32964471 -0.26230201 0.68754524 2124461
0.33323118 -0.24678101 0.6816622 2124462
0.33502176 -0.23869656 0.68225855 2124463
0.33808404 -0.22532545 0.67848557 2124464
0.3407917 -0.21341489 0.67607415 2124465
0.34368882 -0.20070581 0.67312801 2124466
0.34787467 -0.18262278 0.66592532 2124467
0.35189208 -0.16522239 0.65948731 2124468
0.3586835 -0.13624775 0.64396125 2124469
0.36734918 -0.09942764 0.6225614 2124470
0.32587188 -0.27458394 0.69095093 2125181
0.32817984 -0.26433498 0.68945438 2125182
0.3299543 -0.25629863 0.6899507 2125183
0.33479309 -0.23548637 0.67969745 2125184
0.33748388 -0.22360858 0.67720222 2125185
0.34054416 -0.21017803 0.67353952 2125186
0.34306833 -0.19897319 0.6718576 2125187
0.34978992 -0.17022073 0.65595233 2125188
0.35708928 -0.13902014 0.6384331 2125189
0.36643696 -0.099214986 0.61440998 2125190
0.32540226 -0.26432699 0.68250573 2125902
0.32821962 -0.25179887 0.67912441 2125903
0.33015826 -0.24296552 0.67903465 2125904
0.33298966 -0.23035668 0.67582941 2125905
0.33779237 -0.20940888 0.66576552 2125906
0.34064567 -0.1966781 0.66279155 2125907
0.34494293 -0.17782815 0.65491104 2125908
0.35069633 -0.15279554 0.64220607 2125909
0.36297303 -0.10010859 0.60743546 2125910
0.31959599 -0.28238693 0.69114828 2126622
0.32360572 -0.26472247 0.68312335 2126623
0.32728016 -0.24846312 0.67652583 2126624
0.32815012 -0.24410759 0.68028355 2126625
0.33537647 -0.21271446 0.66117746 2126626
0.33909336 -0.19622158 0.65498412 2126627
0.34335643 -0.17738563 0.64703524 2126628
0.35155621 -0.14175226 0.62547582 2126629
0.32404256 -0.27090743 0.68079811 2127343
0.3272087 -0.25691953 0.67605567 2127344
0.33020857 -0.24361834 0.67206502 2127345
0.332863 -0.23176123 0.66945565 2127346
0.3378382 -0.21009788 0.65867186 2127347
0.34390497 -0.18380019 0.64427215 2127348
0.35160962 -0.15055071 0.62443125 2127349
0.32660919 -0.26754028 0.67757028 2128064
0.33104584 -0.248345 0.66832614 2128065
0.33496606 -0.23128846 0.66116512 2128066
0.33764973 -0.21938881 0.65861374 2128067
0.34231293 -0.19918849 0.64916068 2128068
0.35328901 -0.15251207 0.61774307 2128069
0.33394644 -0.24742386 0.66708839 2128786
0.33953175 -0.2236664 0.65415418 2128787
0.34423828 -0.2035182 0.64461178 2128788
0.34914514 -0.18251859 0.63459814 2128789
0.34265408 -0.22436064 0.64649689 2129507
0.34923717 -0.19680843 0.63045895 2129508
0.35310704 -0.18030798 0.62423587 2129509
0.35754099 -0.1614846 0.61623716 2129510
0.35278133 -0.19534296 0.6207338 2130228
0.35417137 -0.19813272 0.61484659 2130948
0.35746953 -0.19263071 0.60968715 2131669
0.35932145 -0.19948842 0.60706651 2132389
-2.7683308 -7.5704741 0.37117675 2185717
-2.7545977 -7.5429797 0.34518951 2185718
-2.5471058 -7.0861707 0.40141052 2185719
-2.4849563 -6.9511142 0.39905941 2185720
-2.7927351 -7.559226 0.40135705 2186433
-2.7904024 -7.5570259 0.37069792 2186434
-2.7847402 -7.5475259 0.34138194 2186435
-2.765954 -7.5092273 0.31763148 2186436
-2.5679865 -7.0775881 0.37145078 2186437
-2.7976873 -7.5405607 0.40330797 2187150
-2.7974072 -7.5428572 0.37189844 2187151
-2.7974765 -7.5459218 0.34028322 2187152
-2.7942021 -7.5416913 0.30999497 2187153
-2.7687492 -7.4890056 0.28923187 2187154
-2.7948449 -7.5113964 0.37641075 2187871
-2.7965763 -7.5180612 0.34425485 2187872
-2.79248 -7.5120616 0.31442234 2187873
-2.796057 -7.4878297 0.34846053 2188591
-2.7936108 -7.4854312 0.31806162 2188592
-3.2141201 -7.1976752 0.42951161 2209392
-3.2406294 -7.1982527 0.45683217 2210109
-3.2371306 -7.1948252 0.42702892 2210110
-3.2335687 -7.1912842 0.39724663 2210111
-3.2505023 -7.1847105 0.45738509 2210826
-3.2537634 -7.1933484 0.42540121 2210827
-3.2501838 -7.1898122 0.39558944 2210828
-3.2646308 -7.1879911 0.45540297 2211543
-3.2620771 -7.1862969 0.42527205 2211544
-3.2618794 -7.1887856 0.39433292 2211545
-3.2866442 -7.2015557 0.45134151 2212262
-3.2830977 -7.1981363 0.42142814 2212263
-3.2760854 -7.188592 0.39267257 2212264
-3.3226686 -7.2115545 0.44629553 2212977
-3.3190844 -7.208137 0.41626692 2212978
-3.3492279 -7.2052073 0.44387582 2213693
-3.3451231 -7.2009444 0.41397244 2213694
-3.3756945 -7.1950483 0.47288656 2214409
-3.372622 -7.1926231 0.44265115 2214410
-3.3714671 -7.1934972 0.4117935 2214411
-3.3737113 -7.2002249 0.37977377 2214412
-3.4072955 -7.1981101 0.46873814 2215127
-3.4031937 -7.1939826 0.43873093 2215128
-3.3985274 -7.1888909 0.40891173 2215129
-3.3957918 -7.1870923 0.37847868 2215130
-3.4054461 -7.2064447 0.34386629 2215131
-3.3965862 -7.1942 0.31539527 2215132
-3.3906541 -7.1869502 0.28597748 2215133
-3.4352586 -7.1940293 0.46584639 2215842
-3.4316285 -7.1907625 0.43563861 2215843
-3.4329572 -7.1958795 0.40386227 2215844
-3.4301918 -7.1940794 0.3733269 2215845
-3.4253507 -7.1887684 0.3434664 2215846
-3.4219477 -7.1858912 0.31312981 2215847
-3.412972 -7.173574 0.28474501 2215848
-3.4534504 -7.1876936 0.46460637 2216558
-3.4472747 -7.1801915 0.4351559 2216559
-3.4460857 -7.1810651 0.40417877 2216560
-3.453398 -7.1962337 0.37040332 2216561
-3.4475195 -7.1892352 0.34081885 2216562
-3.4385586 -7.1770463 0.31232268 2216563
-3.4859612 -7.2061205 0.45879278 2217278
-3.4772024 -7.1943817 0.42997587 2217279
-3.4754863 -7.1943979 0.39903757 2217280
-3.4777505 -7.2010689 0.36677876 2217281
-3.4728491 -7.1957693 0.33678716 2217282
-3.4653542 -7.186131 0.30769545 2217283
-3.5234141 -7.2314935 0.48296282 2217992
-3.5151739 -7.2207174 0.45377439 2217993
-3.5114617 -7.2174501 0.42328912 2217994
-3.503098 -7.2064581 0.39425829 2217995
-3.502306 -7.2080388 0.36287278 2217996
-3.4999149 -7.2069669 0.33196127 2217997
-3.4933903 -7.1990228 0.30242383 2217998
-3.5533307 -7.2541223 0.44562075 2218709
-3.5516264 -7.2542219 0.414305 2218710
-3.5457594 -7.2474451 0.38425088 2218711
-3.5408487 -7.2422466 0.35392529 2218712
-3.530771 -7.2284989 0.32531893 2218713
-3.525732 -7.2230811 0.29511577 2218714
-3.5972378 -7.2967 0.43592402 2219426
-3.5934417 -7.2933998 0.40497082 2219427
-3.5849593 -7.2823935 0.37547401 2219428
-3.5565941 -7.2445254 0.28844285 2219431
-3.6605484 -7.3387985 0.42402962 2220143
-3.6566875 -7.335485 0.39277637 2220144
-3.7006505 -7.3381062 0.41911352 2220861
-3.6962273 -7.3339624 0.38792726 2220862
-3.690845 -7.3342404 0.29185602 2220865
-3.7397139 -7.3419533 0.47801989 2221575
-3.7348747 -7.3372116 0.44686797 2221576
-3.732065 -7.3357058 0.41514754 2221577
-3.7349496 -7.3432899 0.38171715 2221578
-3.7335553 -7.3440518 0.34947738 2221579
-3.7504058 -7.3374901 0.47732189 2222294
-3.7566183 -7.3503356 0.44306949 2222295
-3.7532628 -7.3479881 0.41140208 2222296
-3.745101 -7.3379974 0.3811498 2222297
-3.7410767 -7.3345838 0.3497068 2222298
-3.7485225 -7.3494291 0.31466767 2222299
-3.7731509 -7.3511629 0.47340304 2223014
-3.7714434 -7.3514452 0.44125623 2223015
-3.7707133 -7.3532786 0.40879226 2223016
-3.7662129 -7.3491426 0.37738919 2223017
-3.7732258 -7.3632584 0.34249139 2223018
-3.7690945 -7.3597155 0.31089059 2223019
-3.7866762 -7.3554029 0.47136563 2223729
-3.7876062 -7.3598604 0.43843475 2223730
-3.7842224 -7.357512 0.40666035 2223731
-3.7828763 -7.3583846 0.37427467 2223732
-3.781451 -7.3591361 0.3418676 2223733
-3.7730942 -7.3489285 0.31157982 2223734
-3.7989028 -7.3592982 0.46954042 2224448
-3.7971778 -7.3595753 0.43730354 2224449
-3.7906075 -7.3522224 0.40641841 2224450
-3.7876723 -7.350595 0.37450528 2224451
-3.7799034 -7.3413467 0.34403989 2224452
-3.7815733 -7.3469849 0.31069329 2224453
-3.8088369 -7.3623004 0.46792921 2225166
-3.8076365 -7.3634095 0.4355104 2225167
-3.8068869 -7.365232 0.40291727 2225168
-3.8012867 -7.3594298 0.37169892 2225169
-3.8072624 -7.3718419 0.336999 2225170
-3.7993932 -7.3624711 0.30644074 2225171
-3.815124 -7.3750596 0.43341365 2225887
-3.8085315 -7.367702 0.40243033 2225888
-3.8151186 -7.3810701 0.36760816 2225889
-3.8099627 -7.3759751 0.33616516 2225890
-3.8100228 -7.3790908 0.30311465 2225891
-3.8181162 -7.3790245 0.43242881 2226604
-3.8157649 -7.3783355 0.40020937 2226605
-3.8161776 -7.3880382 0.30105507 2226608
-3.8427124 -7.3795648 0.42932084 2227320
-3.8398106 -7.3780437 0.39719364 2227321
-3.8386102 -7.3852334 0.29836604 2227324
-3.8834274 -7.3848624 0.4237999 2228039
-3.8751283 -7.375041 0.3930794 2228040
-3.9210198 -7.3811913 0.45259756 2228755
-3.9170547 -7.3781409 0.42058405 2228756
-3.9119329 -7.3733182 0.38889632 2228757
-3.9472518 -7.3696675 0.45045662 2229473
-3.9470665 -7.3724127 0.41738513 2229474
-3.9424517 -7.3684301 0.38549483 2229475
-3.9426446 -7.3717594 0.35222298 2229476
-3.9416673 -7.3733149 0.3192268 2229477
-3.9754393 -7.3614664 0.44768989 2230190
-3.973608 -7.3617368 0.41502503 2230191
-3.9766111 -7.3692994 0.380972 2230192
-3.9762487 -7.3717957 0.34777093 2230193
-3.9719846 -7.3684092 0.31566149 2230194
-3.9538269 -7.4021535 0.44647449 2230908
-3.9492872 -7.3982697 0.4144547 2230909
-3.9435883 -7.3926163 0.3827697 2230910
-3.9480982 -7.4025445 0.34815308 2230911
-3.9444034 -7.3999553 0.31583744 2230912
-3.8842502 -7.4734826 0.48097652 2231623
-3.8788049 -7.4679794 0.44914004 2231624
-3.8748806 -7.4648623 0.41690704 2231625
-3.8724735 -7.4641285 0.38423958 2231626
-3.8673363 -7.4591064 0.35234857 2231627
-3.8690107 -7.4647946 0.31841105 2231628
-3.7941031 -7.5219951 0.45412734 2232338
-3.7949412 -7.5263991 0.42056751 2232339
-3.7972541 -7.5331984 0.38649744 2232340
-3.7875462 -7.5205336 0.35592216 2232341
-3.7886605 -7.5254011 0.32210788 2232342
-3.7777817 -7.510828 0.29200476 2232343
-3.9151864 -7.4770508 0.47720423 2233054
-3.9161172 -7.4815536 0.44356233 2233055
-3.9142923 -7.4817672 0.41060165 2233056
-3.9081197 -7.4752016 0.37884372 2233057
-3.9013422 -7.467689 0.34729826 2233058
-3.9056726 -7.4775171 0.31244543 2233059
-4.0257697 -7.4050932 0.43743306 2233769
-4.0217018 -7.402051 0.40508276 2233770
-4.0170074 -7.3980694 0.37290648 2233771
-4.0199027 -7.4054761 0.33856007 2233772
-4.1123137 -7.3792605 0.42888087 2234488
-4.1048121 -7.3713574 0.39730924 2234489
-4.1421561 -7.3873997 0.42428461 2235202
-4.1362934 -7.3819509 0.3921634 2235203
-4.1568432 -7.3759942 0.39008257 2235919
-4.1853828 -7.3812747 0.38586879 2236639
-4.173739 -7.3676205 0.35521632 2236640
-4.2108812 -7.3814106 0.38284415 2237359
-4.2150426 -7.3904533 0.34781727 2237360
-4.2291632 -7.3756633 0.38100305 2238078
-4.2287889 -7.3782277 0.34718248 2238079
-4.2548018 -7.3913364 0.3762002 2238796
-4.261816 -7.4043846 0.34025428 2238797
-4.2693276 -7.3906312 0.37434754 2239513
-4.2689309 -7.3931823 0.34037209 2239514
-4.2931132 -7.3869052 0.37155846 2240232
-4.2886963 -7.3838201 0.33861679 2240233
-4.3089228 -7.3668504 0.37133637 2240950
-4.4481201 -7.3955526 0.35055846 2248845
-4.9412136 -7.3169107 0.56921661 2258159
-4.9662151 -7.3192921 0.56601328 2258874
-4.9848495 -7.3139915 0.56402361 2259591
-5.0444069 -7.3117056 0.59204298 2260309
-5.0318298 -7.3000445 0.55892015 2260310
-5.105392 -7.2905421 0.58575702 2261025
-5.0862293 -7.2714367 0.55374408 2261026
-5.1592026 -7.2684712 0.58026004 2261744
-5.1450877 -7.2554874 0.54720968 2261745
-5.1550169 -7.289382 0.57967049 2262461
-5.1532764 -7.2906237 0.5442661 2262462
-5.1517186 -7.3120875 0.57884741 2263176
-5.1564555 -7.3208394 0.54217112 2263177
-5.1661425 -7.3193111 0.57652545 2263887
-5.1566038 -7.3115258 0.54243994 2263888
-5.2011876 -7.3189254 0.57190812 2264604
-5.1987634 -7.3194051 0.53639579 2264605
-5.2350392 -7.3168144 0.56783652 2265320
-5.2280192 -7.3120694 0.53308225 2265321
-5.2601233 -7.321291 0.60053718 2266039
-5.2440038 -7.3062243 0.56731641 2266040
-5.2745676 -7.3177223 0.59900934 2266754
-5.270236 -7.3160915 0.56365401 2266755
-5.2684264 -7.3173237 0.52783155 2266756
-5.3114915 -7.3354616 0.59388244 2267473
-5.2946253 -7.3197012 0.56058913 2267474
-5.2987208 -7.3276253 0.52359146 2267475
-5.3284969 -7.3282094 0.59227252 2268190
-5.3528838 -7.3289251 0.5892356 2268908
-5.3517957 -7.3310137 0.55303186 2268909
-5.3472953 -7.3292818 0.51741183 2268910
-5.3865376 -7.3400187 0.5847708 2269624
-5.3807907 -7.3369288 0.54925567 2269625
-5.3789148 -7.3381581 0.51304537 2269626
-5.43892 -7.3715892 0.57703274 2270339
-5.4298058 -7.3648114 0.54185182 2270340
-5.4033298 -7.338737 0.50992095 2270341
-5.5233474 -7.430541 0.60143942 2271054
-5.4982524 -7.406209 0.56851476 2271055
-5.458425 -7.3655729 0.53846729 2271056
-5.4485097 -7.357964 0.50340307 2271057
-5.6267385 -7.5028768 0.58620524 2271771
-5.5573144 -7.4301457 0.56025171 2271772
-5.5206561 -7.3933024 0.52937555 2271773
-5.5133443 -7.3886504 0.49355263 2271774
-6.4055171 -8.2977209 0.58856082 2272485
-5.9604712 -7.8173895 0.61271042 2272486
-5.8604121 -7.7120743 0.58868104 2272487
-5.8316422 -7.6842909 0.55428892 2272488
-5.7389846 -7.5868564 0.53104359 2272489
-5.6436715 -7.4864211 0.50942326 2272490
-5.6067405 -7.4495692 0.47833166 2272491
-6.4750295 -8.3227501 0.62286609 2273203
-5.9840474 -7.8034511 0.5710122 2273206
-5.9233913 -7.7414308 0.54112697 2273207
-5.8680992 -7.6851511 0.51106656 2273208
-5.7137647 -7.5215235 0.49907503 2273209
-5.6968517 -7.5066619 0.4639931 2273210
-6.5340095 -8.339735 0.61600262 2273917
-6.4526429 -8.256319 0.58462226 2273918
-6.0878577 -7.8684711 0.59656614 2273919
-6.0283585 -7.8082004 0.56561226 2273920
-5.9559636 -7.7340012 0.53746653 2273921
-5.8571768 -7.6313357 0.51466089 2273922
-5.7915473 -7.5642414 0.48726693 2273923
-5.7738523 -7.5486908 0.45194536 2273924
-6.5589094 -8.3271217 0.61355501 2274635
-6.4752593 -8.2417517 0.58245218 2274636
-6.2100391 -7.962389 0.57945561 2274637
-6.0449677 -7.7897277 0.56424803 2274638
-5.9737191 -7.7171822 0.53590935 2274639
-5.9112782 -7.6539793 0.50695026 2274640
-5.848815 -7.5906839 0.47874588 2274641
-5.8073282 -7.5497837 0.44748127 2274642
-6.5607166 -8.3212872 0.61345786 2275354
-6.5056162 -8.2664518 0.57829285 2275355
-6.2034822 -7.9480367 0.5806216 2275356
-6.0471621 -7.7849021 0.56411266 2275357
-5.9697585 -7.7058659 0.53677768 2275358
-5.9140754 -7.6499515 0.50672501 2275359
-5.8590369 -7.5946665 0.47722191 2275360
-5.7938018 -7.5284147 0.45022497 2275361
-6.5986004 -8.3539667 0.60847723 2276070
-6.219841 -7.9545174 0.61925548 2276071
-6.0838552 -7.8133245 0.59867352 2276072
-6.0595088 -7.7910047 0.56242388 2276073
-5.9691405 -7.6982317 0.53712976 2276074
-5.9107118 -7.6394482 0.50756389 2276075
-5.8515754 -7.5798464 0.47881958 2276076
-5.8032646 -7.5317473 0.4488166 2276077
-6.6152167 -8.364255 0.60655993 2276784
-6.0967646 -7.8202534 0.59711319 2276786
-6.0669522 -7.7921457 0.56165034 2276787
-5.9670086 -7.6892719 0.53787547 2276788
-5.8847666 -7.6051602 0.51235378 2276789
-5.8514252 -7.5731263 0.47928125 2276790
-5.8037686 -7.5257783 0.44917816 2276791
-6.6164742 -8.3575897 0.60658282 2277502
-6.6117201 -8.356473 0.56394833 2277503
-6.1904111 -7.912437 0.58338523 2277504
-6.0726595 -7.7908602 0.56101227 2277505
-5.9842248 -7.7003574 0.53535569 2277506
-5.8896842 -7.6032524 0.5118134 2277507
-5.8420534 -7.5560312 0.48123047 2277508
-5.804563 -7.5195718 0.44936389 2277509
-6.6629305 -8.3958731 0.60072505 2278220
-6.6206007 -8.3549194 0.56318009 2278221
-6.3510556 -8.0726957 0.55995995 2278222
-6.0817785 -7.7904463 0.56011975 2278223
-5.9871387 -7.6934962 0.53543359 2278224
-5.9068146 -7.6116638 0.50950265 2278225
-5.863215 -7.5688176 0.47813061 2278226
-5.8120923 -7.5179162 0.4486267 2278227
-6.7140794 -8.3951416 0.5951345 2278940
-6.6695056 -8.3521805 0.5577448 2278941
-6.4159837 -8.0890284 0.55193341 2278942
-6.118907 -7.7796717 0.55607969 2278943
-6.0423412 -7.7025566 0.52836508 2278944
-5.8919768 -7.5474753 0.51397818 2278945
-5.8687158 -7.5264344 0.47929347 2278946
-5.8208132 -7.4793382 0.44930673 2278947
-6.7557111 -8.3812389 0.63486147 2279653
-6.6656175 -8.29111 0.60331333 2279654
-6.6628933 -8.2921953 0.56044996 2279655
-6.5032825 -8.129221 0.54084241 2279656
-6.1507263 -7.7641845 0.55309093 2279657
-6.0436506 -7.6557355 0.53022254 2279658
-5.9489636 -7.5601444 0.50659221 2279659
-5.8837762 -7.4953656 0.47898263 2279660
-5.8363791 -7.449172 0.44893864 2279661
-6.7985992 -8.3687019 0.6304971 2280370
-6.6956787 -8.2660379 0.60057569 2280371
-6.6908693 -8.2649841 0.55799413 2280372
-6.5809951 -8.1549349 0.5309779 2280373
-6.2773008 -7.8435802 0.53525591 2280374
-6.1035304 -7.6668139 0.52244478 2280375
-5.963654 -7.5250716 0.50612509 2280376
-5.9126577 -7.4755845 0.47609276 2280377
-6.7931461 -8.3043509 0.6324954 2281084
-6.7231383 -8.2363682 0.59832269 2281085
-6.6544805 -8.1696997 0.56478602 2281086
-6.5954919 -8.1129055 0.53062934 2281087
-6.3923578 -7.9076552 0.51939493 2281088
-6.0924859 -7.6025305 0.52622271 2281089
-5.9859395 -7.4963107 0.50452685 2281090
-5.9333482 -7.4456124 0.47477433 2281091
-6.8091111 -8.261941 0.63155824 2281801
-6.6181946 -8.0713148 0.6137796 2281802
-6.5904474 -8.046874 0.57529181 2281803
-6.555644 -8.0152063 0.53813612 2281804
-6.4852772 -7.947196 0.50683504 2281805
-6.0798059 -7.5367951 0.53008956 2281806
-5.9943719 -7.4530406 0.50508761 2281807
-5.9561472 -7.4174728 0.47294089 2281808
-6.6822624 -8.0832291 0.64878517 2282519
-6.5999207 -8.0037785 0.61728996 2282520
-6.5944805 -8.0021009 0.57591766 2282521
-6.5679498 -7.9790564 0.53766263 2282522
-6.5294561 -7.943861 0.50152004 2282523
-6.1071448 -7.5193572 0.52724153 2282524
-6.0116363 -7.4260068 0.50386196 2282525
-5.9823322 -7.3997731 0.47019386 2282526
-6.6073937 -7.9638281 0.61737418 2283240
-6.5963316 -7.9565277 0.57689428 2283241
-6.5907621 -7.9547453 0.53568453 2283242
-6.5248046 -7.892179 0.50375396 2283243
-6.3229795 -7.6927104 0.4943063 2283244
-6.0527744 -7.4241104 0.49870077 2283245
-6.0044775 -7.3789463 0.46817583 2283246
-6.6289864 -7.9349146 0.61557281 2283956
-6.6101365 -7.9199238 0.57620925 2283957
-6.5968113 -7.9104333 0.53620893 2283958
-6.5629749 -7.8804421 0.49945816 2283959
