# .PCD v0.7 - Point Cloud Data file format
VERSION 0.7
FIELDS x y z intensity
SIZE 4 4 4 4
TYPE F F F F
COUNT 1 1 1 1
WIDTH 1191
HEIGHT 1
VIEWPOINT 0 0 0 1 0 0 0
POINTS 1191
DATA ascii
5.3056941 -4.3557611 1.7261069 1793966
5.3293676 -4.3723316 1.700495 1793967
5.3255239 -4.3723779 1.6738298 1793968
-1.855267 -0.066956334 1.3239954 1794669
-1.8564508 -0.065371417 1.333794 1794670
-1.855885 -0.064828254 1.3437595 1794671
-1.8535684 -0.065329924 1.3538657 1794672
-1.8477874 -0.067901462 1.3642236 1794673
-1.846252 -0.067942724 1.3742023 1794674
-1.8463928 -0.06698364 1.3840462 1794675
-1.8550653 -0.060921341 1.3933365 1794676
-1.8551327 -0.060002338 1.403229 1794677
-1.8508785 -0.06167214 1.4133583 1794678
5.2696276 -4.3477483 1.7789578 1794680
5.2754998 -4.3536267 1.7529397 1794681
5.2829838 -4.3604836 1.7269245 1794682
5.2989221 -4.3724575 1.7011248 1794683
5.2908092 -4.3698988 1.6744446 1794684
-1.8564498 -0.059335236 1.3231128 1795388
-1.8533576 -0.060305044 1.3333423 1795389
-1.8545028 -0.058737881 1.3431528 1795390
-1.8521904 -0.059244145 1.3532683 1795391
-1.8506951 -0.059262063 1.3632919 1795392
-1.8457412 -0.061359502 1.3735594 1795393
-1.8527259 -0.05628366 1.3829348 1795394
-1.8468415 -0.05894471 1.3932201 1795395
-1.8434862 -0.060088195 1.4032924 1795396
-1.8409497 -0.060741514 1.4132851 1795397
5.2591929 -4.359117 1.7799613 1795399
5.2454085 -4.3530841 1.7530684 1795400
5.245194 -4.3552814 1.7268592 1795401
5.2585483 -4.365725 1.7011253 1795402
5.2794881 -4.3807955 1.6754793 1795403
-1.8551867 -0.053430535 1.3225068 1796104
-1.8597826 -0.049779043 1.3320069 1796105
-1.8600736 -0.048718736 1.3419425 1796106
-1.8586197 -0.048711147 1.3520285 1796107
-1.8485875 -0.053884082 1.3627909 1796108
-1.8487657 -0.052897297 1.3726754 1796109
-1.848907 -0.051932782 1.3825629 1796110
-1.8421775 -0.055125725 1.3929011 1796111
-1.8405356 -0.055244043 1.4028622 1796112
-1.8405657 -0.054350708 1.4127133 1796113
5.2398357 -4.3620296 1.7802885 1796115
5.2354536 -4.3616853 1.7538851 1796116
5.2395048 -4.3664832 1.7278656 1796117
5.2391925 -4.3686199 1.7016479 1796118
-1.8564454 -0.046237387 1.3317288 1796816
-1.8575886 -0.04466052 1.3415823 1796817
-1.8527253 -0.046723623 1.3519627 1796818
-1.8512349 -0.046745315 1.3620174 1796819
-1.8514135 -0.045755424 1.371928 1796820
-1.8481425 -0.04686112 1.3820835 1796821
-1.8499528 -0.044880722 1.3918698 1796822
-1.8483138 -0.044997379 1.4018832 1796823
-1.8457843 -0.045657653 1.411929 1796824
5.2059002 -4.3561759 1.7798626 1796826
5.2023759 -4.3563318 1.7536366 1796827
5.1970515 -4.355381 1.7273717 1796828
5.1958899 -4.3569798 1.7013063 1796829
-1.8522125 -0.043158848 1.3315284 1797526
-1.8533541 -0.041580502 1.341373 1797527
-1.8493482 -0.043136273 1.3516719 1797528
-1.8495636 -0.042123113 1.3615837 1797529
-1.8548535 -0.038014796 1.3711083 1797530
-1.8532914 -0.038084228 1.3811735 1797531
-1.8533958 -0.037137162 1.3911111 1797532
-1.8534631 -0.036212806 1.4010514 1797533
-1.851789 -0.036353722 1.4110892 1797534
5.1713252 -4.3720818 1.781191 1797536
5.1593208 -4.3669457 1.7546611 1797537
5.1548638 -4.3664813 1.7285634 1797538
5.1469145 -4.3638444 1.7023827 1797539
-1.8475637 -0.031841245 1.330454 1798239
-1.8512483 -0.028688014 1.3400713 1798240
-1.8498033 -0.0286931 1.3501714 1798241
-1.8483204 -0.028723082 1.3602575 1798242
-1.8476497 -0.028253321 1.3702638 1798243
-1.8452432 -0.028856412 1.3803865 1798244
-1.8444979 -0.028434994 1.3903722 1798245
-1.8462634 -0.02646118 1.4001945 1798246
-1.8488413 -0.023982901 1.4099885 1798247
5.1298375 -4.3911633 1.7831181 1798249
5.12042 -4.387538 1.7568095 1798250
5.1151357 -4.3865051 1.7307694 1798251
5.1122947 -4.3870063 1.7048709 1798252
5.1127405 -4.3895769 1.6791023 1798253
-1.8456709 -0.015746726 1.3287678 1798957
-1.8459599 -0.014679217 1.3387291 1798958
-1.8436754 -0.015220623 1.3489177 1798959
-1.8438902 -0.014200663 1.3588728 1798960
-1.8474512 -0.011085525 1.3685672 1798961
-1.8509755 -0.007990255 1.3782992 1798962
-1.8570006 -0.003323833 1.3878969 1798963
-1.8553764 -0.0034518391 1.3980341 1798964
-1.8587903 -0.00041769273 1.4078648 1798965
5.07164 -4.3934503 1.7576106 1798968
5.0807061 -4.4015002 1.7323436 1798969
5.0829325 -4.4052005 1.7067244 1798970
5.0741072 -4.4018574 1.6807221 1798971
-1.8703762 0.014104386 1.32477 1799670
-1.8748821 0.017853649 1.3344949 1799671
-1.8683963 0.014654055 1.3452418 1799672
-1.8728278 0.018359018 1.3550041 1799673
-1.8822803 0.02524855 1.3644149 1799674
-1.9119282 0.044948649 1.3724368 1799675
-1.9137219 0.047005847 1.3826673 1799676
-1.9121053 0.046899606 1.393131 1799677
-1.9180379 0.051587768 1.4031394 1799678
5.0642872 -4.3883348 1.7574626 1799681
5.0632381 -4.3899422 1.731804 1799682
5.0528216 -4.3855815 1.7058027 1799683
5.0507407 -4.3865261 1.6801746 1799684
-1.9254426 0.049703546 1.3297312 1800386
-1.9130635 0.042800855 1.3412637 1800387
-1.9225576 0.049730569 1.3508316 1800388
-2.0011363 0.10042573 1.355058 1800389
-2.0375378 0.12445917 1.3631952 1800390
-2.0376523 0.12550904 1.3741881 1800391
-2.0461569 0.13188465 1.3846507 1800392
-2.0487194 0.13449351 1.3955455 1800393
5.0533476 -4.3813376 1.7569646 1800396
5.0455542 -4.3786473 1.731075 1800397
5.0477834 -4.3823347 1.7056389 1800398
5.0473895 -4.3843522 1.6800913 1800399
-1.9338694 0.055019833 1.3289371 1801103
-1.9358187 0.057183255 1.3392376 1801104
-1.9427867 0.062524624 1.3491346 1801105
-2.0694151 0.14366201 1.3496832 1801106
-1.8782105 0.023462486 1.3749132 1801107
-1.8656707 0.016412923 1.3859502 1801108
-1.8809141 0.026987193 1.3951 1801109
-1.8986498 0.039158497 1.4042616 1801110
5.0410666 -4.3801847 1.7568405 1801113
5.0400195 -4.3817821 1.7312862 1801114
5.0515141 -4.3913856 1.706211 1801115
5.0435381 -4.3885608 1.680383 1801116
-1.9325904 0.056969013 1.3287617 1801813
-1.9328539 0.058066338 1.3392122 1801814
-1.9549799 0.073030166 1.3478267 1801815
-1.9981318 0.1013598 1.35501 1801816
-1.9199327 0.052648839 1.3715767 1801817
-1.8669615 0.01990197 1.3856066 1801818
-1.8670294 0.020844609 1.3957292 1801819
-1.9369938 0.066280276 1.4017844 1801820
5.0285435 -4.383039 1.7571967 1801823
-1.9383912 0.066043131 1.3382534 1802522
-1.9402997 0.068191528 1.3486047 1802523
-1.9791993 0.093901761 1.3560493 1802524
-1.9328775 0.067223266 1.3382571 1803240
-1.9389869 0.072057962 1.3482356 1803241
-2.0072699 0.11664117 1.3533455 1803242
-2.1856625 0.23172273 1.3509983 1803243
-1.9402884 0.079529278 1.3367938 1803953
-1.9396751 0.080072582 1.3473969 1803954
-1.9801468 0.1070298 1.3547181 1803955
-2.1196268 0.19772464 1.3550816 1803956
-1.9383727 0.086101018 1.3361527 1804671
-1.9377607 0.086643554 1.3467647 1804672
-1.9605678 0.10233187 1.3554933 1804673
-2.0696387 0.17387263 1.3579987 1804674
-1.9294237 0.086975418 1.3362641 1805388
-1.9355035 0.091860093 1.3462731 1805389
-1.9549304 0.10542616 1.3552703 1805390
-2.0479417 0.16687627 1.3589351 1805391
-1.929127 0.092860684 1.3356584 1806103
-1.9351987 0.097759344 1.3456793 1806104
-1.9512573 0.10918526 1.3549556 1806105
-2.0265958 0.15936501 1.3599231 1806106
-1.9548585 0.11343275 1.3760085 1806107
-1.9371532 0.10416754 1.3342878 1806820
-1.9365448 0.10471016 1.3449391 1806821
-1.9400684 0.10796271 1.3552473 1806822
-2.0420001 0.1758205 1.3581339 1806823
-1.9461665 0.11385363 1.376036 1806824
-1.9282379 0.10315729 1.3345952 1807536
-1.9301289 0.10534008 1.3449959 1807537
-1.9411482 0.11353424 1.3546726 1807538
-2.0329676 0.17497413 1.3583204 1807539
-2.255604 0.32274914 1.3536626 1807540
-1.9384997 0.11472398 1.3331518 1808255
-1.9478811 0.12186286 1.3429679 1808256
-1.9497336 0.1240354 1.3534931 1808257
-2.0098197 0.16471495 1.3595958 1808258
-2.1855907 0.28199768 1.3581082 1808259
-1.9384786 0.12004276 1.3325849 1808970
-1.9436923 0.12444454 1.3427738 1808971
-1.9513625 0.13048042 1.3528142 1808972
-1.9997358 0.16354305 1.3598188 1808973
-2.1353831 0.2546255 1.3611063 1808974
-1.9433392 0.13032065 1.3421803 1809685
-1.9460175 0.1330543 1.352641 1809686
-1.9802084 0.15680341 1.3607076 1809687
-2.1032112 0.23984683 1.3627746 1809688
-1.9387718 0.13347629 1.3419516 1810402
-1.9414462 0.13621396 1.3524033 1810403
-1.9639812 0.15225767 1.3613509 1810404
-2.0909557 0.23833017 1.3630325 1810405
-1.9394149 0.14848998 1.3404068 1811110
-1.9412547 0.15068579 1.350965 1811111
-1.9562776 0.16180827 1.3605156 1811112
-2.0572097 0.2311471 1.3639941 1811113
-1.9345567 0.16083181 1.339244 1811820
-1.9388601 0.16472824 1.3496076 1811821
-1.9546529 0.17649563 1.3591129 1811822
-2.032166 0.23056757 1.3642642 1811823
-2.2652793 0.39140004 1.3596611 1811824
-1.9360343 0.17436437 1.3378254 1812537
-1.9378631 0.1765822 1.3484343 1812538
-1.9429376 0.18104394 1.358804 1812539
-2.0440378 0.2518959 1.3621387 1812540
-2.2075083 0.36599061 1.3622698 1812541
-1.9320658 0.17656858 1.3376764 1813247
-1.9371725 0.18106122 1.3479986 1813248
-1.9430614 0.18610068 1.3583112 1813249
-2.0161617 0.23777494 1.3637085 1813250
-2.130235 0.31796318 1.367063 1813251
-1.9314125 0.18095842 1.3372335 1813963
-1.9373327 0.18602975 1.3474941 1813964
-1.9415768 0.18994042 1.3579491 1813965
-1.9973918 0.22975643 1.3646169 1813966
-2.0859406 0.2924282 1.3696181 1813967
-1.9379951 0.19411677 1.3357592 1814677
-1.9373648 0.19463649 1.3466326 1814678
-1.9350607 0.19398393 1.3576314 1814679
-1.971143 0.22021408 1.3657373 1814680
-2.0513389 0.2773951 1.3711655 1814681
-1.9309092 0.19895276 1.3353972 1815396
-1.934358 0.20234123 1.3459079 1815397
-1.9410315 0.20800528 1.3561939 1815398
-1.9672436 0.22745453 1.3650812 1815399
-2.0717275 0.30216384 1.3687807 1815400
-1.9396871 0.2155043 1.3445085 1816109
-1.9398358 0.21657564 1.355372 1816110
-1.9513402 0.22570781 1.3653767 1816111
-2.0336185 0.28512284 1.3705298 1816112
-2.2534156 0.44236344 1.3676307 1816113
-1.9398484 0.22381917 1.3436728 1816816
-1.9383729 0.2237343 1.3546898 1816817
-1.9539171 0.23579788 1.3643962 1816818
-2.0141041 0.27976659 1.3711138 1816819
-2.1749892 0.39577377 1.3718989 1816820
4.444077 -4.3661437 1.6659212 1816827
-1.9513136 0.24040112 1.3418462 1817528
-1.9522738 0.24206538 1.3527474 1817529
-1.9596813 0.24835949 1.3631649 1817530
-1.999481 0.27793387 1.3713598 1817531
-2.1211317 0.3663936 1.3746052 1817532
-1.9612972 0.25041914 1.3406907 1818243
-1.9614475 0.25150782 1.3517189 1818244
-1.9664198 0.25606549 1.3623782 1818245
-2.0094342 0.28801328 1.3703828 1818246
-2.131815 0.37717342 1.3736259 1818247
-1.9841295 0.26783204 1.3498492 1818956
-1.9858624 0.27007043 1.3608781 1818957
-2.0191545 0.29502952 1.3696778 1818958
-2.1358628 0.38010997 1.3733426 1818959
-1.9962139 0.27836758 1.3486798 1819669
-2.0084748 0.28819701 1.3589711 1819670
-2.0458031 0.31610581 1.3676065 1819671
-2.1527438 0.39425793 1.3720536 1819672
-2.0285141 0.3221983 1.3440515 1820384
-2.0407205 0.33212671 1.3545623 1820385
-2.0996428 0.37619227 1.3618336 1820386
-2.1883535 0.44208902 1.3677514 1820387
-0.12291673 0.50916696 1.3411025 2035922
-0.13504273 0.60571194 1.3392979 2035923
-0.10835343 0.4129782 1.3437301 2036642
-0.10553899 0.39103097 1.3532864 2036643
-0.11468568 0.46482706 1.3531997 2036644
-0.1590022 0.82105768 1.3362488 2036646
-0.10095852 0.3662318 1.3345512 2037361
-0.099520691 0.35519293 1.342887 2037362
-0.098690093 0.34904629 1.3505915 2037363
-0.098833866 0.35076123 1.3574241 2037364
-0.10313208 0.38602868 1.3609556 2037365
-0.15220486 0.78375787 1.339561 2037367
-0.09511172 0.33191887 1.3385545 2038082
-0.095140211 0.33269876 1.345413 2038083
-0.09419471 0.32555345 1.3531239 2038084
-0.09421578 0.32627022 1.3599542 2038085
-0.10163343 0.3872143 1.3608429 2038086
-0.14496037 0.74069774 1.3347043 2038087
-0.14618655 0.75137889 1.342472 2038088
-0.089562207 0.31877595 1.3332264 2038801
-0.088880993 0.31366095 1.3407139 2038802
-0.088433594 0.31048417 1.3479319 2038803
-0.088457741 0.31122303 1.354694 2038804
-0.088359542 0.31094491 1.3615611 2038805
-0.094317995 0.36103103 1.3634536 2038806
-0.12962626 0.65529913 1.3427919 2038807
-0.13106464 0.66792607 1.3500043 2038808
-0.084231868 0.30840725 1.3344979 2039522
-0.08426255 0.30920428 1.341249 2039523
-0.084522195 0.31194624 1.3477825 2039524
-0.084313571 0.31071058 1.3547612 2039525
-0.084217697 0.31043193 1.361624 2039526
-0.089465491 0.35559061 1.3639982 2039527
-0.11470585 0.57083917 1.3507509 2039528
-0.11622886 0.58442467 1.3575007 2039529
-0.080205888 0.30887309 1.3344634 2040243
-0.080122471 0.30868334 1.3413293 2040244
-0.080262862 0.31043798 1.3479689 2040245
-0.079490945 0.3042616 1.3554698 2040246
-0.07951092 0.30496761 1.3622004 2040247
-0.085664287 0.35903582 1.3636705 2040248
-0.10579442 0.53478491 1.3541578 2040249
-0.10739702 0.54934907 1.3606577 2040250
-0.076640382 0.31327209 1.333952 2040964
-0.076337092 0.31110975 1.3410649 2040965
-0.076252446 0.31089032 1.3479342 2040966
-0.075387165 0.30372381 1.3555415 2040967
-0.075628988 0.30640665 1.362064 2040968
-0.08208742 0.364447 1.3631474 2040969
-0.099429153 0.51947141 1.3556089 2040970
-0.10044014 0.52908403 1.3624831 2040971
-0.072399043 0.31174394 1.334166 2041685
-0.072428264 0.31254199 1.3409258 2041686
-0.072562702 0.3142986 1.3475785 2041687
-0.071175434 0.3021889 1.3557293 2041688
-0.072171129 0.31179327 1.3615305 2041689
-0.078154251 0.36688435 1.3629287 2041690
-0.09346576 0.50710839 1.3567978 2041691
-0.093259856 0.50582689 1.3645923 2041692
-0.065422729 0.29751107 1.3358989 2042406
-0.06534604 0.29731396 1.3427085 2042407
-0.065791048 0.30202818 1.34896 2042408
-0.06549821 0.29979563 1.3559932 2042409
-0.066147171 0.30643445 1.3620863 2042410
-0.072673433 0.36847135 1.3627722 2042411
-0.079722673 0.43548113 1.3635336 2042412
-0.081833638 0.45596093 1.3690562 2042413
-0.058639631 0.28723311 1.3371649 2043127
-0.059882298 0.29987651 1.3424329 2043128
-0.059400417 0.29569516 1.3496882 2043129
-0.059421942 0.29642573 1.3563722 2043130
-0.059643131 0.29910654 1.3628556 2043131
-0.062597275 0.32849169 1.3667247 2043132
-0.064940885 0.35192907 1.3714081 2043133
-0.064849511 0.35157409 1.3784274 2043134
-0.053181946 0.28778017 1.3371252 2043848
-0.053208556 0.28856516 1.3437723 2043849
-0.05284163 0.28536513 1.3508652 2043850
-0.052667115 0.2841115 1.3577141 2043851
-0.053466678 0.29272696 1.3635293 2043852
-0.0548498 0.30726314 1.3688315 2043853
-0.05652345 0.32475466 1.3739784 2043854
-0.05780353 0.33826548 1.3796313 2043855
-0.048205782 0.29324505 1.3364857 2044569
-0.048231799 0.29403272 1.3431545 2044570
-0.048349179 0.29578084 1.3497159 2044571
-0.048181433 0.29453132 1.3566083 2044572
-0.048293319 0.296222 1.3631804 2044573
-0.049343985 0.30779201 1.368788 2044574
-0.049544632 0.31042174 1.3753334 2044575
-0.05115502 0.32789737 1.380565 2044576
-0.044267606 0.30936599 1.3413993 2045291
-0.043293498 0.29924512 1.3493537 2045292
-0.04304162 0.29700595 1.3563653 2045293
-0.043059006 0.29770708 1.3630481 2045294
-0.04325508 0.30036134 1.3695387 2045295
-0.044083275 0.30992866 1.3753964 2045296
-0.044546179 0.31550646 1.381691 2045297
-0.039575607 0.31975609 1.3402114 2046012
-0.039423943 0.3185471 1.3472131 2046013
-0.038050376 0.30343953 1.3556896 2046014
-0.037719078 0.30017957 1.3628064 2046015
-0.03773357 0.30085242 1.369501 2046016
-0.038268212 0.30744711 1.3756385 2046017
-0.038626138 0.31203321 1.3820088 2046018
-0.04082007 0.40299568 1.3450062 2046735
-0.03841636 0.37499848 1.3551084 2046736
-0.037763212 0.36777067 1.3629102 2046737
-0.03694034 0.35852146 1.3708321 2046738
-0.036950029 0.35915914 1.3777798 2046739
-0.050159011 0.59042764 1.3409702 2047458
-0.049692556 0.58523899 1.3494917 2047459
-0.047702305 0.56114775 1.3596567 2047460
-0.053895615 0.7005353 1.3471578 2048181
-0.054049745 0.76945072 1.3410096 2048902
0.18183188 -8.0849075 2.1342037 2066206
0.18181799 -8.0835371 2.1039367 2066207
0.17219675 -8.0830412 2.133872 2066927
0.17214465 -8.0776834 2.1032746 2066928
0.17596287 -8.0810051 2.1337101 2067648
0.17599852 -8.0836172 2.1038001 2067649
0.17987844 -8.0819521 2.1338124 2068369
0.17984159 -8.0785866 2.103389 2068370
0.16034037 -8.0841522 2.1339846 2069090
0.16034853 -8.0837774 2.103807 2069091
0.11897188 -8.0884027 2.1342585 2069811
0.11899853 -8.088028 2.1040635 2069812
0.077587999 -8.0854263 2.1339204 2070532
0.077624828 -8.0880394 2.1039929 2070533
0.054899726 -8.0932932 2.1346271 2071253
0.054985411 -8.0879393 2.1039863 2071254
0.03240614 -8.0961323 2.1345994 2071974
0.032462146 -8.0967569 2.1044545 2071975
0.014108219 -8.0929632 2.1341858 2072695
0.014229595 -8.0886049 2.1036301 2072696
0.0027401948 -8.0898314 2.1338964 2073416
0.0028050097 -8.0904522 2.1037774 2073417
-0.008530993 -8.0926371 2.1343513 2074137
-0.0085238293 -8.0972452 2.1045585 2074138
-0.010056153 -8.090621 2.1341612 2074858
-0.0099719204 -8.0902481 2.1039534 2074859
-0.010003463 -8.0926065 2.1344156 2075579
-0.0099966843 -8.0972157 2.1046228 2075580
-0.019936234 -8.1024094 2.1352773 2076300
-0.019898329 -8.1050291 2.1052713 2076301
-0.054553844 -8.1017532 2.1351368 2077021
-0.054384254 -8.0983963 2.1046224 2077022
-0.0542995 -8.0988903 2.0744708 2077023
-0.088896856 -8.0979195 2.1349411 2077742
-0.088724025 -8.0955582 2.1045246 2077743
-0.088547722 -8.0930634 2.0741403 2077744
-0.10829438 -8.0894022 2.1341596 2078463
-0.10837486 -8.0960016 2.1045406 2078464
-0.10833243 -8.0984888 2.0745542 2078465
-0.12368845 -8.1038818 2.1353457 2079184
-0.12358582 -8.1045122 2.1051531 2079185
-0.12325566 -8.0980349 2.0744038 2079186
-0.13997242 -8.1033421 2.1353304 2079905
-0.13959073 -8.0960054 2.10446 2079906
-0.13930748 -8.0915194 2.0739067 2079907
-0.1632148 -8.1074924 2.1357632 2080626
-0.16272447 -8.0981684 2.1047015 2080627
-0.1624549 -8.0946808 2.0742154 2080628
-0.18600906 -8.1046581 2.1349525 2081347
-0.18592891 -8.1062841 2.1048317 2081348
-0.18580247 -8.106782 2.0746279 2081349
-0.21489477 -8.0994625 2.13414 2082068
-0.21485528 -8.1020813 2.1041212 2082069
-0.21471965 -8.1025782 2.0739305 2082070
-0.24893619 -8.1058273 2.1346805 2082789
-0.24879634 -8.1064587 2.1044576 2082790
-0.24869992 -8.1079531 2.0743213 2082791
-0.28104332 -8.1111317 2.135181 2083510
-0.28078479 -8.1097765 2.1047585 2083511
-0.28035539 -8.1053019 2.0741193 2083512
-0.29279411 -8.1194515 2.1359754 2084231
-0.29230404 -8.1141214 2.1051757 2084232
-0.29163802 -8.105669 2.074194 2084233
-0.30356029 -8.1118517 2.1353405 2084952
-0.30299944 -8.105526 2.1044867 2084953
-0.30237326 -8.0980663 2.0736198 2084954
-0.31679246 -8.1071148 2.134644 2085670
-0.31663242 -8.107749 2.1043994 2085671
-0.31676331 -8.1132259 2.0745618 2085672
-0.33173048 -8.1041842 2.1346765 2086391
-0.33144206 -8.1028309 2.1042717 2086392
-0.33089787 -8.0973644 2.0735698 2086393
-0.34703487 -8.107214 2.1349359 2087112
-0.34673756 -8.1058626 2.1045136 2087113
-0.3466883 -8.1083555 2.0744357 2087114
-0.36939469 -8.1057549 2.1347146 2087833
-0.3692863 -8.1073856 2.1045461 2087834
-0.36957303 -8.1148529 2.0748558 2087835
-0.39297071 -8.1161175 2.1355636 2088554
-0.39222306 -8.1088085 2.1045828 2088555
-0.39224303 -8.1122971 2.0745587 2088556
-0.4149138 -8.1045341 2.1346436 2089275
-0.41450274 -8.1021919 2.1041284 2089276
-0.41459921 -8.1066742 2.0742064 2089277
-0.43807024 -8.1107779 2.1352437 2089996
-0.43802845 -8.1134081 2.1051161 2089997
-0.43782213 -8.1139183 2.0748172 2089998
-0.4612295 -8.1119509 2.1353979 2090717
-0.46175069 -8.1215334 2.1058481 2090718
-0.46121535 -8.1180754 2.0751855 2090719
-0.47999331 -8.1053886 2.1351213 2091438
-0.47995111 -8.1080198 2.1050026 2091439
-0.48048046 -8.1174717 2.0754333 2091440
-0.4998211 -8.113718 2.1357625 2092159
-0.49977866 -8.1163521 2.1056004 2092160
-0.49920914 -8.112896 2.0749466 2092161
-0.51462632 -8.1144505 2.1355994 2092880
-0.51414341 -8.1121225 2.1050067 2092881
-0.51382506 -8.1116447 2.0746062 2092882
-0.5194239 -8.1260262 2.1366374 2093601
-0.51876098 -8.1217175 2.1058238 2093602
-0.51870662 -8.1242218 2.0756199 2093603
-0.5231787 -8.1257153 2.1363416 2094322
-0.52313602 -8.1283531 2.1061184 2094323
-0.52192271 -8.1179533 2.0748446 2094324
-0.52167827 -8.1183367 2.0445049 2094325
-0.5327791 -8.1278639 2.1364408 2095043
-0.53237438 -8.1265335 2.1058671 2095044
-0.53132439 -8.1181192 2.0747581 2095045
-0.53116733 -8.1194973 2.0444896 2095046
-0.54378504 -8.1218596 2.1358972 2095764
-0.54374218 -8.1244955 2.1056826 2095765
-0.54359502 -8.126009 2.075377 2095766
-0.5425145 -8.1174612 2.0443139 2095767
-0.55663931 -8.1236506 2.1361647 2096485
-0.55640841 -8.1243057 2.1057684 2096486
-0.5561651 -8.1248264 2.0753787 2096487
-0.55600327 -8.1262083 2.0450711 2096488
-0.57526922 -8.1228743 2.1360943 2097206
-0.57493621 -8.1225386 2.1056097 2097207
-0.57488024 -8.1250448 2.0753796 2097208
-0.57481146 -8.1274195 2.0451391 2097209
-0.59430307 -8.1220207 2.1359124 2097927
-0.59425968 -8.1246595 2.1056762 2097928
-0.59440184 -8.1291513 2.0755885 2097929
-0.59433222 -8.1315279 2.0453217 2097930
-0.61945993 -8.1344881 2.1370697 2098648
-0.61859435 -8.1292028 2.1060946 2098649
-0.61853707 -8.1317139 2.0758169 2098650
-0.6184662 -8.1340923 2.0455284 2098651
-0.64662009 -8.1346617 2.1369226 2099369
-0.64668274 -8.138298 2.1066923 2099370
-0.64566553 -8.1318932 2.0756443 2099371
-0.64516705 -8.1303062 2.0450411 2099372
-0.67277622 -8.1308136 2.1366241 2100090
-0.67273206 -8.1334591 2.1063139 2100091
-0.67267317 -8.135973 2.0759926 2100092
-0.67304099 -8.1423197 2.0459623 2100093
-0.69139546 -8.1287279 2.1364501 2100811
-0.69135106 -8.1313734 2.1061399 2100812
-0.69038767 -8.1259642 2.0751808 2100813
-0.6896354 -8.1224003 2.0444314 2100814
-0.71019709 -8.1265736 2.1361659 2101532
-0.71015245 -8.1292191 2.1058557 2101533
-0.71009248 -8.1317329 2.0755343 2101534
-0.70990145 -8.1331253 2.0451272 2101535
-0.73476022 -8.1276846 2.1363442 2102252
-0.73447698 -8.1283531 2.1058486 2102253
-0.73370129 -8.1249304 2.0750408 2102254
-0.73314828 -8.123353 2.0444252 2102255
-0.76406699 -8.1200991 2.1356189 2102973
-0.76402175 -8.1227446 2.105309 2102974
-0.76383668 -8.1242704 2.074908 2102975
-0.76474613 -8.1345692 2.0451825 2102976
-0.79576182 -8.1301537 2.1364994 2103694
-0.79507744 -8.1278639 2.1057088 2103695
-0.79488707 -8.1293936 2.075269 2103696
-0.79557383 -8.1377134 2.0453534 2103697
-0.8159371 -8.1355734 2.1370006 2104415
-0.81523877 -8.1332884 2.1061754 2104416
-0.8141318 -8.127903 2.0751443 2104417
-0.81366003 -8.1273251 2.0445478 2104418
-0.83381206 -8.1241369 2.1362743 2105135
-0.83456522 -8.1327143 2.106411 2105136
-0.83356905 -8.1283226 2.0754507 2105137
-0.83348763 -8.1307116 2.0450668 2105138
-0.8520326 -8.1287117 2.1366901 2105856
-0.85225767 -8.1333408 2.1064608 2105857
-0.85083675 -8.1259899 2.0752492 2105858
-0.85075456 -8.1283789 2.0448654 2105859
-0.86659914 -8.1256733 2.1365516 2106577
-0.86655259 -8.1283283 2.106159 2106578
-0.86703879 -8.1348019 2.0760732 2106579
-0.86723113 -8.1391716 2.0457919 2106580
-0.88405305 -8.1393261 2.1377826 2107298
-0.88330638 -8.1370544 2.1069016 2107299
-0.88310105 -8.1385956 2.0763707 2107300
-0.88203734 -8.1340809 2.0453873 2107301
-0.89156014 -8.1322136 2.1371865 2108019
-0.89151311 -8.1348724 2.1067505 2108020
-0.89017701 -8.12852 2.0755885 2108021
-0.88995141 -8.1299257 2.0450947 2108022
-0.89844465 -8.1261883 2.1367786 2108740
-0.89967787 -8.137723 2.1071186 2108741
-0.90032303 -8.1451864 2.0770512 2108742
-0.89981121 -8.1446247 2.0463293 2108743
-0.91614425 -8.1377344 2.1377103 2109461
-0.9159525 -8.1394119 2.1071515 2109462
-0.91516358 -8.1370115 2.0762727 2109463
-0.91421103 -8.1334887 2.0453515 2109464
-0.95495778 -8.1350422 2.1370478 2110182
-0.95446038 -8.1347494 2.1063087 2110183
-0.95379293 -8.133337 2.075505 2110184
-0.95430523 -8.139678 2.0453253 2110185
-0.99392575 -8.1340866 2.1369469 2110903
-0.99465483 -8.1416731 2.1068547 2110904
-0.99396437 -8.1402693 2.075995 2110905
-0.99387491 -8.1426716 2.045459 2110906
-0.99190021 -8.1331186 2.0140669 2110907
-1.0242578 -8.1373615 2.1368754 2111624
-1.0238904 -8.1380606 2.1061637 2111625
-1.0238206 -8.1405954 2.0756164 2111626
-1.0234104 -8.1410294 2.044909 2111627
-1.0223411 -8.137392 2.0139277 2111628
-1.052079 -8.1398726 2.1373572 2112345
-1.0510502 -8.1366453 2.1062815 2112346
-1.0511431 -8.1401653 2.0758004 2112347
-1.0510507 -8.1425705 2.0452251 2112348
-1.0493035 -8.135004 2.0139365 2112349
-1.0768812 -8.130681 2.1365979 2113066
-1.0771664 -8.1353149 2.1062112 2113067
-1.0770952 -8.1378536 2.0756381 2113068
-1.0761667 -8.1353445 2.0446808 2113069
-1.0757171 -8.1356516 2.0139682 2113070
-1.1011183 -8.1336679 2.1364241 2113787
-1.1010692 -8.1363382 2.1058402 2113788
-1.1015081 -8.1418238 2.0754819 2113789
-1.1007324 -8.1403017 2.0445647 2113790
-1.1004447 -8.1415939 2.0138834 2113791
-1.1236826 -8.1307716 2.1360197 2114508
-1.1236334 -8.1334429 2.1054316 2114509
-1.1240811 -8.1389256 2.0750685 2114510
-1.1248524 -8.146244 2.0448179 2114511
-1.1231726 -8.1396818 2.0135319 2114512
-1.1594481 -8.1345148 2.1366172 2115229
-1.1599333 -8.140131 2.106235 2115230
-1.1595033 -8.1407146 2.0754216 2115231
-1.1583364 -8.1372395 2.044317 2115232
-1.1587499 -8.1424637 2.0138857 2115233
-1.2015221 -8.1318636 2.1363332 2115950
-1.2016562 -8.13552 2.105763 2115951
-1.2015816 -8.1380663 2.0750942 2115952
-1.2011139 -8.1385202 2.044266 2115953
-1.1995173 -8.1329594 2.0130253 2115954
-1.2425891 -8.133213 2.1364429 2116671
-1.2417799 -8.1319809 2.1054187 2116672
-1.2411351 -8.1315928 2.0744965 2116673
-1.2404648 -8.1310711 2.0435901 2116674
-1.2403382 -8.1333532 2.0129094 2116675
-1.230772 -8.1304188 2.1363101 2117392
-1.2305337 -8.1321192 2.1055565 2117393
-1.2304585 -8.1346664 2.0748789 2117394
-1.2303579 -8.1370821 2.0441906 2117395
-1.230044 -8.1383877 2.0134227 2117396
-1.2210389 -8.1413975 2.1372476 2118113
-1.2202427 -8.1401644 2.1062057 2118114
-1.2186757 -8.1348791 2.0748727 2118115
-1.2189486 -8.1392536 2.0443418 2118116
-1.2190101 -8.142518 2.0137138 2118117
-1.2270105 -8.1412878 2.1372275 2118834
-1.2267733 -8.142992 2.1064305 2118835
-1.2268853 -8.1465225 2.075788 2118836
-1.2247245 -8.1381674 2.0442348 2118837
-1.2253484 -8.144371 2.0138164 2118838
-1.2504938 -8.1418638 2.1372435 2119555
-1.2498719 -8.141614 2.1062589 2119556
-1.249796 -8.144166 2.0755248 2119557
-1.2470276 -8.1328821 2.0437407 2119558
-1.2469008 -8.1351662 2.013047 2119559
-1.2743225 -8.1412897 2.1371183 2120276
-1.2760161 -8.1527739 2.107111 2120277
-1.2751644 -8.1514196 2.0759933 2120278
-1.2735116 -8.146018 2.0446029 2120279
-1.2731893 -8.1473303 2.013761 2120280
-1.2948493 -8.1453419 2.1375227 2120997
-1.2940128 -8.1441231 2.1064031 2120998
-1.2935429 -8.1447248 2.0754642 2120999
-1.2936356 -8.1481256 2.0447547 2121000
-1.29272 -8.1465063 2.0136774 2121001
-1.3164351 -8.1531897 2.138341 2121718
-1.3157867 -8.1529551 2.1072524 2121719
-1.3149123 -8.1516094 2.0761001 2121720
-1.3142103 -8.1511068 2.0450463 2121721
-1.3128842 -8.1475372 2.0137994 2121722
-1.3502675 -8.1523914 2.1380253 2122439
-1.3489938 -8.1492338 2.1066628 2122440
-1.3483039 -8.1488686 2.0755763 2122441
-1.3475866 -8.1483698 2.0445054 2122442
-1.3472493 -8.1496887 2.0135899 2122443
-1.4014747 -8.1354685 2.1364779 2123160
-1.4016342 -8.1391373 2.1057203 2123161
-1.4009206 -8.1387777 2.07463 2123162
-1.401023 -8.1421814 2.0438504 2123163
-1.4008859 -8.1444807 2.0129828 2123164
-1.4577833 -8.1384478 2.1364756 2123881
-1.4559822 -8.1333685 2.1049111 2123882
-1.4559004 -8.1359329 2.0740292 2123883
-1.4542588 -8.1315546 2.0426211 2123884
-1.4545553 -8.1358004 2.0118878 2123885
-1.4489396 -8.1281633 2.1356177 2124602
-1.4497584 -8.1347485 2.105094 2124603
-1.4507654 -8.1421776 2.0746021 2124604
-1.4506543 -8.1446123 2.0436881 2124605
-1.4489899 -8.1401005 2.0122786 2124606
-1.4328094 -8.1449585 2.1373563 2125323
-1.4344779 -8.1554432 2.1071062 2125324
-1.432891 -8.1512012 2.0756037 2125325
-1.4323506 -8.1516914 2.0445204 2125326
-1.4300607 -8.1442537 2.0128889 2125327
-1.422976 -8.1532011 2.1382747 2126044
-1.4229239 -8.1559048 2.1073389 2126045
-1.4215617 -8.1526327 2.075923 2126046
-1.4212384 -8.1540966 2.0449176 2126047
-1.4206727 -8.1544523 2.0138416 2126048
-1.4370241 -8.1633883 2.1392052 2126765
-1.4346057 -8.1553926 2.1073055 2126766
-1.4360299 -8.1647787 2.0768967 2126767
-1.4376398 -8.1750126 2.0464904 2126768
-1.4327687 -8.1558952 2.0139213 2126769
-1.4504094 -8.1686592 2.1391232 2127486
-1.4492735 -8.1665049 2.1076841 2127487
-1.4472412 -8.1603222 2.0759649 2127488
-1.4466966 -8.1608162 2.0448294 2127489
-1.4467729 -8.1640978 2.0139093 2127490
-1.4700592 -8.177557 2.1398931 2128207
-1.4700065 -8.1802711 2.1088092 2128208
-1.4688286 -8.1779909 2.0773244 2128209
-1.467183 -8.1736279 2.0457251 2128210
-1.466822 -8.1749687 2.0145924 2128211
-1.489491 -8.1741896 2.13978 2128928
-1.4901035 -8.1798201 2.1089389 2128929
-1.4913509 -8.1882362 2.0782943 2128930
-1.4907941 -8.1887465 2.0469983 2128931
-1.4904288 -8.1900949 2.0157785 2128932
-1.5094856 -8.178833 2.1401618 2129649
-1.5087597 -8.1786394 2.1087878 2129650
-1.5091245 -8.1831675 2.0778184 2129651
-1.5094589 -8.1875648 2.0468209 2129652
-1.5079687 -8.1840544 2.0152423 2129653
-1.5202373 -8.175312 2.1399453 2130370
-1.520184 -8.178031 2.1088226 2130371
-1.5196483 -8.1786757 2.0775328 2130372
-1.5202109 -8.1840439 2.0466175 2130373
-1.5191622 -8.1824799 2.0151818 2130374
-1.5189859 -8.1846685 1.9840308 2130375
-1.5318093 -8.1716547 2.1392519 2131091
-1.5310737 -8.1714611 2.107887 2131092
-1.5309895 -8.1740456 2.0767703 2131093
-1.5308743 -8.1764975 2.0456431 2131094
-1.5307281 -8.1788168 2.0145059 2131095
-1.5287317 -8.1732311 1.982841 2131096
-1.5515887 -8.1649799 2.1386147 2131812
-1.5494624 -8.1589689 2.106766 2131813
-1.5459236 -8.1470003 2.074518 2131814
-1.5490315 -8.1630297 2.0445182 2131815
-1.548654 -8.1643763 2.0133512 2131816
-1.5482451 -8.1655893 1.9821833 2131817
-1.5753307 -8.1450291 2.1366165 2132533
-1.5755112 -8.1487083 2.1056495 2132534
-1.575192 -8.1503191 2.0745072 2132535
-1.5720323 -8.1401625 2.0424838 2132536
-1.5735216 -8.1492624 2.0119421 2132537
-1.573341 -8.1514444 1.9808782 2132538
-1.6019877 -8.1406326 2.1362112 2133254
-1.6019338 -8.1433449 2.1051536 2133255
-1.6030364 -8.1507664 2.0744724 2133256
-1.6014917 -8.1474047 2.042932 2133257
-1.6008656 -8.1477833 2.0117092 2133258
-1.6002072 -8.1480284 1.9804946 2133259
-1.619961 -8.1505775 2.137053 2133975
-1.6182283 -8.1465225 2.1053612 2133976
-1.6181417 -8.149106 2.0742621 2133977
-1.6165837 -8.1457481 2.0427132 2133978
-1.6154729 -8.1441917 2.0113444 2133979
-1.61409 -8.1415319 1.9799365 2133980
-1.6377939 -8.1574411 2.1378074 2134696
-1.636288 -8.1543617 2.1061502 2134697
-1.6337817 -8.1472769 2.074224 2134698
-1.6331778 -8.1477947 2.0429592 2134699
-1.6315736 -8.1443071 2.0114269 2134700
-1.6328387 -8.1523027 1.9807104 2134701
-1.6574125 -8.1576834 2.137737 2135417
-1.6561356 -8.1555758 2.1061401 2135418
-1.6545808 -8.1523666 2.0744982 2135419
-1.6515263 -8.143219 2.0424595 2135420
-1.6516163 -8.1465063 2.0114086 2135421
-1.6509401 -8.14676 1.9801464 2135422
-1.6799222 -8.1519737 2.1374233 2136138
-1.6761532 -8.1402159 2.1050096 2136139
-1.6763122 -8.1437693 2.0739529 2136140
-1.6754473 -8.1433268 2.0425851 2136141
-1.6752914 -8.1456499 2.0114396 2136142
-1.6731215 -8.1401072 1.9797699 2136143
-1.7039407 -8.1519957 2.1373532 2136859
-1.7026318 -8.1498995 2.105731 2136860
-1.701038 -8.1467018 2.0740638 2136861
-1.7014159 -8.1510916 2.0430217 2136862
-1.6995033 -8.1466599 2.0113351 2136863
-1.6993115 -8.1488533 1.9801495 2136864
-1.7233419 -8.1531067 2.1376998 2137580
-1.7217672 -8.150054 2.1059704 2137581
-1.7206643 -8.1487923 2.0744362 2137582
-1.7200333 -8.1493254 2.043072 2137583
-1.7188615 -8.1477957 2.0115783 2137584
-1.7168958 -8.1432352 1.9799174 2137585
-1.7429882 -8.1541414 2.1377382 2138301
-1.7424212 -8.1549473 2.1063092 2138302
-1.7423306 -8.157547 2.0750403 2138303
-1.7422049 -8.1600142 2.0437613 2138304
-1.7364187 -8.1411343 2.0109656 2138305
-1.7362236 -8.1433315 1.9797627 2138306
-1.7594453 -8.1600676 2.1384506 2139022
-1.7573279 -8.1551018 2.1064889 2139023
-1.7574943 -8.1586666 2.0752802 2139024
-1.7558219 -8.1553555 2.0435424 2139025
-1.7551451 -8.1557646 2.0121207 2139026
-1.7536601 -8.1531477 1.9805149 2139027
-1.7675152 -8.1609936 2.1385248 2139743
-1.7669415 -8.1618061 2.1070392 2139744
-1.76685 -8.1644115 2.0757143 2139745
-1.7636187 -8.1553259 2.0435052 2139746
-1.762163 -8.1528454 2.0118697 2139747
-1.7619655 -8.1550493 1.9805886 2139748
-1.7777588 -8.1685667 2.1392112 2140464
-1.7751048 -8.1616859 2.1070306 2140465
-1.7760519 -8.1681423 2.0760052 2140466
-1.7733269 -8.1609888 2.0439157 2140467
-1.7716056 -8.1575489 2.0121772 2140468
-1.7708879 -8.1578283 1.9807377 2140469
-1.7984737 -8.1671267 2.1390469 2141185
-1.7986799 -8.1708317 2.1077449 2141186
-1.7938627 -8.1561298 2.0749593 2141187
-1.7937344 -8.1586027 2.043628 2141188
-1.7943573 -8.1638317 2.0124917 2141189
-1.7923201 -8.1593018 1.9806801 2141190
-1.821502 -8.1629095 2.1386979 2141905
-1.8214453 -8.1656542 2.1073058 2141906
-1.8205553 -8.1653833 2.0756714 2141907
-1.8193635 -8.1640167 2.0439801 2141908
-1.818135 -8.1625156 2.0123138 2141909
-1.8144808 -8.1522226 1.9800975 2141910
-1.8463212 -8.1643076 2.1388388 2142626
-1.8449204 -8.1622562 2.1070056 2142627
-1.8442889 -8.1629496 2.0754356 2142628
-1.8436207 -8.1635103 2.0438724 2142629
-1.8399597 -8.153368 2.0115664 2142630
-1.8386806 -8.1517353 1.9799389 2142631
-1.8744978 -8.1657248 2.1389911 2143345
-1.8728064 -8.1627235 2.1070383 2143346
-1.8727115 -8.1653404 2.0755873 2143347
-1.8712178 -8.1630287 2.0437634 2143348
-1.8683256 -8.1557817 2.0116324 2143349
-1.8692076 -8.1618385 1.9804718 2143350
-1.90231 -8.1661148 2.1389215 2144062
-1.9003211 -8.1621637 2.1068535 2144063
-1.8974671 -8.1552029 2.074605 2144064
-1.8984368 -8.161521 2.0434458 2144065
-1.8996441 -8.1686678 2.0123098 2144066
-1.8964009 -8.1603413 1.9801027 2144067
-1.9206094 -8.1639299 2.1389389 2144781
-1.9188815 -8.160943 2.1069391 2144782
-1.9204546 -8.1693106 2.0759003 2144783
-1.9183722 -8.1650982 2.0438585 2144784
-1.9162514 -8.1607485 2.0118678 2144785
-1.9157618 -8.162014 1.9803103 2144786
-1.9379354 -8.1682453 2.1392853 2145499
-1.9353541 -8.1623974 2.1070039 2145500
-1.9341359 -8.1611938 2.0751727 2145501
-1.9328793 -8.1598568 2.0433657 2145502
-1.9327052 -8.1622143 2.0118551 2145503
-1.9330529 -8.1663551 1.9804622 2145504
-1.9604 -8.1835079 2.1405661 2146215
-1.9603415 -8.1862755 2.108922 2146216
-1.9551574 -8.1716986 2.0758891 2146217
-1.9533255 -8.1684561 2.0438683 2146218
-1.9537151 -8.1727314 2.0124326 2146219
-1.9535006 -8.174962 1.9808429 2146220
-1.9856147 -8.1719074 2.1394939 2146930
-1.9849836 -8.1727648 2.1077056 2146931
-1.9820232 -8.1658459 2.0753119 2146932
-1.9807408 -8.1645222 2.0434275 2146933
-1.9805635 -8.1668863 2.0118384 2146934
-1.9823495 -8.1758108 1.9806839 2146935
-2.0129826 -8.1668472 2.1389654 2147646
-2.0123441 -8.1677074 2.1071641 2147647
-2.0122449 -8.1703415 2.0755219 2147648
-2.0063095 -8.1537561 2.0424294 2147649
-2.0061307 -8.1561193 2.0108538 2147650
-2.0062015 -8.1593065 1.979332 2147651
-2.0424018 -8.1641426 2.1388335 2148366
-2.0423424 -8.166913 2.1071677 2148367
-2.0410681 -8.16574 2.0751858 2148368
-2.0418081 -8.1711035 2.0437312 2148369
-2.0413332 -8.1725235 2.0119705 2148370
-2.0399368 -8.170948 1.9800197 2148371
-2.0729654 -8.157855 2.1381853 2149084
-2.0737989 -8.1634798 2.1067476 2149085
-2.0748887 -8.1699266 2.0753491 2149086
-2.0696857 -8.1562529 2.0423982 2149087
-2.0695024 -8.1586246 2.0107312 2149088
-2.0680876 -8.1570539 1.9788026 2149089
-2.1068356 -8.1660547 2.1388485 2149799
-2.1055691 -8.1650324 2.10677 2149800
-2.1021495 -8.1572218 2.0741832 2149801
-2.09899 -8.1502237 2.0417533 2149802
-2.0988047 -8.1525965 2.0100732 2149803
-2.0997837 -8.1586428 1.9786355 2149804
-2.1024437 -8.1653395 2.1388574 2150520
-2.1044912 -8.1747684 2.1076717 2150521
-2.1007762 -8.1660089 2.0749695 2150522
-2.0988264 -8.162816 2.0427911 2150523
-2.0971358 -8.1604366 2.0107222 2150524
-2.0972097 -8.1636314 1.9790654 2150525
-2.1012216 -8.1741228 2.1392851 2151236
-2.0987568 -8.1692991 2.1068592 2151237
-2.0986552 -8.1719437 2.0750995 2151238
-2.0991127 -8.1763573 2.0434725 2151239
-2.0977254 -8.1749315 2.0114145 2151240
-2.0968974 -8.1752748 1.9795078 2151241
-2.1070294 -8.1816988 2.1399705 2151953
-2.1060665 -8.1816301 2.1079071 2151954
-2.1056635 -8.1833286 2.0760105 2151955
-2.1031117 -8.178237 2.0436108 2151956
-2.1017222 -8.1768131 2.0115397 2151957
-2.0972817 -8.1657391 1.9788648 2151958
-2.1205683 -8.1857958 2.1402905 2152672
-2.1192977 -8.184782 2.1081123 2152673
-2.1191955 -8.1874342 2.0762613 2152674
-2.1157234 -8.1794977 2.0436122 2152675
-2.1152346 -8.1809301 2.0117214 2152676
-2.1128888 -8.1765232 1.9794526 2152677
-2.1326816 -8.1861553 2.1401801 2153391
-2.1326215 -8.188942 2.1083057 2153392
-2.1319106 -8.1896973 2.076268 2153393
-2.1302457 -8.1874676 2.0440228 2153394
-2.1294501 -8.1879539 2.0120125 2153395
-2.1289165 -8.1892557 1.9800731 2153396
-2.1529438 -8.1880579 2.1402872 2154110
-2.1544156 -8.19559 2.1087787 2154111
-2.1518605 -8.1906576 2.0762298 2154112
-2.1517146 -8.193181 2.0443118 2154113
-2.1496871 -8.1898737 2.011981 2154114
-2.1509874 -8.1968794 1.9803834 2154115
-2.1734011 -8.1867256 2.1401017 2154829
-2.1724133 -8.1866741 2.1079302 2154830
-2.1710737 -8.1855402 2.0756981 2154831
-2.1715446 -8.1899605 2.0439184 2154832
-2.1710455 -8.1914034 2.0119102 2154833
-2.1705031 -8.1927128 1.9799014 2154834
-2.1992671 -8.1929846 2.1406496 2155545
-2.1982703 -8.1929407 2.1084177 2155546
-2.1984775 -8.1965504 2.0765033 2155547
-2.1930268 -8.1829748 2.0432863 2155548
-2.1937709 -8.1882105 2.0115461 2155549
-2.1944714 -8.1933155 1.9797703 2155550
-2.2303421 -8.1985073 2.1408784 2156263
-2.2283876 -8.1956358 2.1083422 2156264
-2.2254424 -8.1897898 2.0756202 2156265
-2.2230844 -8.1856966 2.0431085 2156266
-2.2216289 -8.1843061 2.010848 2156267
-2.2198138 -8.1818342 1.9785506 2156268
-2.2554495 -8.1859226 2.1398356 2156982
-2.2547498 -8.1868343 2.1076365 2156983
-2.2546434 -8.1895027 2.0755942 2156984
-2.2516208 -8.1835318 2.0429018 2156985
-2.2507868 -8.1840401 2.0107448 2156986
-2.2511847 -8.1881981 1.9788451 2156987
-2.2808881 -8.1973276 2.140831 2157698
-2.2769654 -8.1888142 2.1077528 2157699
-2.2758932 -8.1886539 2.0754454 2157700
-2.2741325 -8.18647 2.0430117 2157701
-2.2736135 -8.1879282 2.0108778 2157702
-2.2733712 -8.1901989 1.9788058 2157703
-2.302175 -8.2005749 2.1414716 2158415
-2.3008161 -8.1996174 2.1089873 2158416
-2.3000598 -8.2004108 2.0766773 2158417
-2.2947197 -8.1878624 2.043381 2158418
-2.2932248 -8.1864958 2.0110128 2158419
-2.2903879 -8.1812172 1.9784212 2158420
-2.3199494 -8.1965866 2.1411331 2159132
-2.3192339 -8.1975174 2.1087997 2159133
-2.3165138 -8.1926603 2.0760212 2159134
-2.3157063 -8.1933203 2.0437267 2159135
-2.3148534 -8.1938467 2.0114396 2159136
-2.314281 -8.1951818 1.9792229 2159137
-2.3399756 -8.2065468 2.1418412 2159850
-2.3362994 -8.1990137 2.1087229 2159851
-2.3352048 -8.1988726 2.0762901 2159852
-2.3350496 -8.2014217 2.0440853 2159853
-2.3309069 -8.1925316 2.0110734 2159854
-2.332958 -8.2014084 1.9793357 2159855
-2.3579135 -8.2098122 2.1420748 2160570
-2.3558674 -8.2069931 2.1093154 2160571
-2.3537748 -8.2040358 2.0765967 2160572
-2.352627 -8.2037649 2.0441318 2160573
-2.3517632 -8.2043009 2.0117495 2160574
-2.3468883 -8.1934013 1.978631 2160575
-2.3611653 -8.2108068 2.1422379 2161289
-2.3617642 -8.2155123 2.110105 2161290
-2.3586767 -8.2097378 2.0771177 2161291
-2.3571973 -8.2085295 2.0445518 2161292
-2.3560019 -8.208127 2.0120769 2161293
-2.3560829 -8.2113552 1.9798669 2161294
-2.3603754 -8.2195158 2.1430838 2162008
-2.3603125 -8.2223434 2.1107574 2162009
-2.3582206 -8.2193928 2.0779691 2162010
-2.3570728 -8.2191277 2.0454345 2162011
-2.354888 -8.2159033 2.012717 2162012
-2.3533173 -8.214426 1.9801663 2162013
-2.3602867 -8.2227173 2.1433089 2162722
-2.360554 -8.2264862 2.1110487 2162723
-2.3601139 -8.228241 2.0786183 2162724
-2.3602877 -8.2317438 2.0463276 2162725
-2.3587635 -8.2304068 2.0136862 2162726
-2.355212 -8.2232819 1.9806982 2162727
-2.3789515 -8.2277861 2.1439526 2163437
-2.3778913 -8.2278004 2.1113269 2163438
-2.3774488 -8.2295589 2.0788665 2163439
-2.3772914 -8.2321243 2.0464747 2163440
-2.3747616 -8.2279701 2.0136085 2163441
-2.37451 -8.2302666 1.9812276 2163442
-2.3953099 -8.226264 2.1437104 2164153
-2.3962495 -8.2319164 2.1115434 2164154
-2.3964727 -8.2355585 2.0791893 2164155
-2.3946433 -8.233429 2.0463924 2164156
-2.3934348 -8.2330427 2.0137613 2164157
-2.3901742 -8.2268782 1.9807755 2164158
-2.4189289 -8.2253199 2.1433535 2164873
-2.4181912 -8.2262802 2.1107597 2164874
-2.4163942 -8.2242899 2.0779479 2164875
-2.4145494 -8.2221622 2.0451686 2164876
-2.4163649 -8.2302303 2.0131507 2164877
-2.4150989 -8.2297125 1.9805149 2164878
-2.4522698 -8.23561 2.1441672 2165589
-2.4508433 -8.2347069 2.1113243 2165590
-2.4439185 -8.2186708 2.0773096 2165591
-2.4427361 -8.2184267 2.0446544 2165592
-2.4438899 -8.2246141 2.0124776 2165593
-2.4453351 -8.2316074 1.9803181 2165594
-2.4767363 -8.2224712 2.1431265 2166308
-2.4773602 -8.2271862 2.1107755 2166309
-2.4762149 -8.2270889 2.0780225 2166310
-2.4743323 -8.2249832 2.0451446 2166311
-2.4734333 -8.2255526 2.0124979 2166312
-2.4717975 -8.2241116 1.9797361 2166313
-2.5559192 -8.2047873 2.1414101 2167024
-2.555146 -8.2057714 2.108696 2167025
-2.5529056 -8.2028923 2.075691 2167026
-2.5502608 -8.1989431 2.0426576 2167027
-2.54792 -8.1957893 2.0097408 2167028
-2.5476539 -8.1980982 1.9772342 2167029
-2.6308239 -8.1803608 2.1391609 2167740
-2.63185 -8.1859941 2.1068215 2167741
-2.6317322 -8.1887131 2.074223 2167742
-2.6297429 -8.1866541 2.0412662 2167743
-2.6295214 -8.189106 2.0086689 2167744
-2.6270649 -8.1858482 1.9756973 2167745
-2.6666894 -8.174921 2.1382217 2168455
-2.6669917 -8.1786976 2.1056905 2168456
-2.6635582 -8.1730766 2.0724025 2168457
-2.6637552 -8.1765871 2.0398757 2168458
-2.6635315 -8.179039 2.0072656 2168459
-2.6621509 -8.1785755 1.9744641 2168460
-2.6422377 -8.1673994 2.1375382 2169171
-2.6425378 -8.1711712 2.1050766 2169172
-2.6413224 -8.1711006 2.0723002 2169173
-2.6422498 -8.176465 2.0399559 2169174
-2.644954 -8.1863403 2.0079012 2169175
-2.6439481 -8.1868019 1.9751601 2169176
-2.6140151 -8.1495275 2.1360905 2169888
-2.6139498 -8.1523628 2.1036682 2169889
-2.6211009 -8.1736393 2.0727129 2169890
-2.6216586 -8.1780758 2.0403211 2169891
-2.6218011 -8.1814508 2.0078368 2169892
-2.6204391 -8.1809769 1.9750913 2169893
-2.6216466 -8.0973549 2.1311212 2170605
-2.6281822 -8.1168585 2.1003046 2170606
-2.6295314 -8.1232595 2.0682878 2170607
-2.6293623 -8.1258221 2.0359485 2170608
-2.6313412 -8.1338215 2.0039895 2170609
-2.6358337 -8.1481924 1.9723939 2170610
-2.6370761 -8.0515985 2.1270087 2171322
-2.6396055 -8.0608797 2.0954928 2171323
-2.6431944 -8.072813 2.064126 2171324
-2.6430249 -8.0753613 2.0319693 2171325
-2.646138 -8.0861187 2.000387 2171326
-2.648828 -8.0958233 1.9686565 2171327
-2.6414638 -8.0025816 2.1229241 2172037
-2.6466272 -8.0183096 2.0921445 2172038
-2.6465099 -8.0209732 2.0602026 2172039
-2.6497009 -8.0318327 2.028873 2172040
-2.6528392 -8.0425682 1.9974555 2172041
-2.6525645 -8.0448494 1.9654062 2172042
-2.6338699 -7.9637461 2.1194706 2172753
-2.6364257 -7.9729862 2.0883148 2172754
-2.6385555 -7.9811792 2.057014 2172755
-2.6387606 -7.9846234 2.0253048 2172756
-2.6404111 -7.9916406 1.9938368 2172757
-2.6438808 -8.0031586 1.9626184 2172758
-2.6252162 -7.9231782 2.1157858 2173470
-2.6259027 -7.9277825 2.084419 2173471
-2.6276627 -7.9350314 2.0532444 2173472
-2.6286204 -7.9403086 2.021878 2173473
-2.6287754 -7.9436102 1.9903464 2173474
-2.6330059 -7.9569592 1.9594616 2173475
-2.6226187 -7.8640146 2.110539 2174185
-2.6240659 -7.87044 2.0795708 2174186
-2.6299963 -7.8878183 2.0494378 2174187
-2.6305835 -7.8921542 2.018189 2174188
-2.6348975 -7.905601 1.9875602 2174189
-2.639914 -7.9207759 1.9569386 2174190
-2.6108832 -7.776206 2.1029143 2174904
-2.6214826 -7.804709 2.074183 2174905
-2.6244133 -7.8146715 2.0437319 2174906
-2.6330037 -7.8383465 2.0142353 2174907
-2.6350682 -7.84623 1.9834312 2174908
-2.641268 -7.864141 1.9532287 2174909
-2.6038039 -7.7155051 2.0977232 2175624
-2.6056557 -7.7227902 2.0674624 2175625
-2.6093707 -7.7345591 2.0375142 2175626
-2.6126509 -7.7452898 2.0074 2175627
-2.6189425 -7.7632751 1.9777145 2175628
-2.6236496 -7.7774591 1.9476317 2175629
-2.5872273 -7.685688 2.0950537 2176340
-2.5925195 -7.7012472 2.0656393 2176341
-2.5931699 -7.7056398 2.0352137 2176342
-2.5945344 -7.7117548 2.0048988 2176343
-2.596612 -7.7195916 1.9746689 2176344
-2.6005499 -7.7319193 1.944679 2176345
-2.5722508 -7.6605606 2.0929856 2177057
-2.5813549 -7.6853218 2.0644743 2177058
-2.5812409 -7.6878667 2.0339849 2177059
-2.5810759 -7.690289 2.0034857 2177060
-2.5793324 -7.6889 1.9727191 2177061
-2.5813568 -7.6966085 1.9425809 2177062
-2.6006231 -7.6542082 2.0923908 2177778
-2.593231 -7.6394019 2.0605221 2177779
-2.5938883 -7.6437726 2.0303442 2177780
-2.5929515 -7.6443429 1.9998642 2177781
-2.5931206 -7.6475506 1.9695857 2177782
-2.5928526 -7.6497159 1.9392298 2177783
-2.6286163 -7.6056576 2.0883422 2178497
-2.6305113 -7.6128917 2.0584803 2178498
-2.6300044 -7.6145039 2.0281267 2178499
-2.6278794 -7.6123247 1.997498 2178500
-2.6288352 -7.617363 1.9674177 2178501
-2.6293473 -7.6213627 1.9372427 2178502
-2.6592126 -7.5741506 2.0855095 2179210
-2.6615312 -7.5822811 2.0557976 2179211
-2.6614151 -7.5848055 2.0255866 2179212
-2.6592617 -7.582633 1.9950242 2179213
-2.6590407 -7.5849137 1.9648165 2179214
-2.6615458 -7.5934854 1.9350182 2179215
-2.6507807 -7.5278316 2.0814424 2179928
-2.6554987 -7.5414252 2.0523922 2179929
-2.6553831 -7.5439358 2.0223556 2179930
-2.6568086 -7.5499849 1.9925824 2179931
-2.6601732 -7.5604906 1.9630857 2179932
-2.6583064 -7.5589833 1.9327266 2179933
-3.0754554 -7.2325377 2.0535114 2200735
-3.2205851 -7.2509928 2.0545354 2206467
-3.2205167 -7.2536159 2.0245562 2206468
-3.2203853 -7.2561245 1.9945674 2206469
-3.2163434 -7.251523 1.9640539 2206470
-3.2534652 -7.2693453 2.056159 2207184
-3.2485616 -7.2632585 2.0253105 2207185
-3.246012 -7.2614117 1.9948825 2207186
-3.2462995 -7.2646852 1.9648751 2207187
-3.2455566 -7.2660975 1.9347306 2207188
-3.2350826 -7.2499213 1.9034741 2207189
-3.2735288 -7.2525477 2.0547912 2207902
-3.2719998 -7.2525711 2.0244761 2207903
-3.2767344 -7.2637987 1.9950686 2207904
-3.271183 -7.2566228 1.9642168 2207905
-3.2684882 -7.2545533 1.9338113 2207906
-3.2662168 -7.2532382 1.9034971 2207907
-3.3114164 -7.2679596 2.0560713 2208622
-3.2922385 -7.2367268 2.0229993 2208623
-3.2940648 -7.2427201 1.9931972 2208624
-3.2938666 -7.2451248 1.9630952 2208625
-3.2960534 -7.2517633 1.9332832 2208626
-3.2893579 -7.2426291 1.9024239 2208627
-3.3338783 -7.261076 2.0552847 2209338
-3.3233247 -7.2480407 1.993328 2209340
-3.3226321 -7.2495832 1.9630795 2209341
-3.3223674 -7.2518797 1.9328908 2209342
-3.3151398 -7.2419024 1.9019219 2209343
-3.5609248 -7.3624101 2.0647593 2214357
-3.5695324 -7.379704 2.0348432 2214358
-3.5790911 -7.3986077 2.004904 2214359
-3.5795579 -7.340909 2.0627153 2215075
-3.6046653 -7.3855228 2.0351233 2215076
-3.6194232 -7.412951 2.0057523 2215077
-3.6197214 -7.4163251 1.9743611 2215078
-3.6194353 -7.4187269 1.9428941 2215079
-3.6093173 -7.4047427 1.9103909 2215080
-3.6041057 -7.3285241 2.0615685 2215790
-3.6345453 -7.3815713 2.0346723 2215791
-3.6545694 -7.4174795 2.0059137 2215792
-3.6543522 -7.4200072 1.974364 2215793
-3.6514781 -7.4181471 1.9425142 2215794
-3.6449134 -7.4101853 1.9103224 2215795
-3.6634223 -7.3934598 2.004158 2216508
-3.6735945 -7.4130273 1.9739287 2216509
-3.6722655 -7.4137349 1.9422368 2216510
-3.6646323 -7.4040895 1.9099083 2216511
-3.8278451 -7.3352904 2.0621259 2221525
-3.870358 -7.4043713 2.0360212 2221526
-3.8675098 -7.4028606 2.0036957 2221527
-3.8458068 -7.3415523 2.0628169 2222244
-3.8743744 -7.3887715 2.0348208 2222245
-3.8780048 -7.3973274 2.0033321 2222246
-3.8804784 -7.4040928 1.9716505 2222247
-3.8769314 -7.4015093 1.9392897 2222248
-3.8749301 -7.4013238 1.9071312 2222249
-3.8604362 -7.3416677 2.0629108 2222964
-3.9015415 -7.4081063 2.0364859 2222965
-3.9024713 -7.4124784 2.0045338 2222966
-3.9022415 -7.4150577 1.9724323 2222967
-3.8938088 -7.4049401 1.9394683 2222968
-3.8934274 -7.407279 1.9074156 2222969
