# .PCD v0.7 - Point Cloud Data file format
VERSION 0.7
FIELDS x y z intensity
SIZE 4 4 4 4
TYPE F F F F
COUNT 1 1 1 1
WIDTH 1121
HEIGHT 1
VIEWPOINT 0 0 0 1 0 0 0
POINTS 1121
DATA ascii
-2.097265 -4.0261197 -0.067042686 2256798
-2.0741429 -3.9983633 -0.069340602 2256799
-2.0398486 -3.9563112 -0.063043296 2256800
-2.0095685 -3.9193416 -0.059240591 2256801
-1.9788113 -3.881721 -0.054628521 2256802
-1.9665115 -3.8676739 -0.063727669 2256803
-1.9419899 -3.8379679 -0.063204952 2256804
-1.9286056 -3.8224978 -0.071082324 2256805
-1.8980941 -3.7850585 -0.065197475 2256806
-1.8930277 -3.7802165 -0.079304151 2256807
-1.8615347 -3.7414539 -0.071925506 2256808
-1.8564609 -3.7365804 -0.085784242 2256809
-1.833849 -3.7091656 -0.085060336 2256810
-1.817838 -3.6902108 -0.089561276 2256811
-1.7985845 -3.6670647 -0.091101825 2256812
-1.7603819 -3.6194913 -0.076088995 2256813
-1.7564106 -3.6159737 -0.090197816 2256814
-1.7362108 -3.591531 -0.09007059 2256815
-4.3545995 -6.7075615 0.0078823864 2257466
-4.1544223 -6.4668355 0.013358099 2257468
-4.1070871 -6.4113293 -0.00090240128 2257469
-3.6234219 -5.8301096 0.0077252383 2257475
-3.6052282 -5.8101406 -0.01274625 2257476
-3.5268812 -5.7156558 -0.0076625911 2257477
-3.4887025 -5.6708455 -0.018716315 2257478
-3.4329967 -5.604259 -0.021617213 2257479
-3.3791916 -5.5399604 -0.024597673 2257480
-3.309778 -5.4562201 -0.019783229 2257481
-3.2634003 -5.4010005 -0.024578605 2257482
-3.2062595 -5.3323488 -0.02371343 2257483
-3.1732497 -5.2936277 -0.033515975 2257484
-3.1180811 -5.2273006 -0.032190949 2257485
-3.0743914 -5.1751919 -0.035725128 2257486
-3.0295749 -5.1216254 -0.038101118 2257487
-2.9782705 -5.0599174 -0.036576077 2257488
-2.9169416 -4.9856439 -0.029176764 2257489
-2.8819113 -4.9441013 -0.034623627 2257490
-2.8576119 -4.9159117 -0.045287196 2257491
-2.8084431 -4.8566313 -0.042274892 2257492
-2.7647007 -4.804069 -0.041526657 2257493
-2.7304885 -4.7633686 -0.045442261 2257494
-2.7169499 -4.7484941 -0.060508583 2257495
-2.65576 -4.6739483 -0.048288912 2257496
-2.5882747 -4.591434 -0.031528655 2257497
-2.5748672 -4.5766125 -0.045451071 2257498
-2.5591025 -4.5588226 -0.057839833 2257499
-2.5229084 -4.515379 -0.05775103 2257500
-2.4605863 -4.4390802 -0.041202534 2257501
-2.4414463 -4.4169521 -0.050434764 2257502
-2.4095573 -4.3787746 -0.051442228 2257503
-2.3939342 -4.3610187 -0.062341724 2257504
-2.3575184 -4.3170748 -0.059682887 2257505
-2.324069 -4.2768197 -0.058436323 2257506
-2.2964442 -4.2438617 -0.060562201 2257507
-2.2688708 -4.2109337 -0.062343825 2257508
-2.2304728 -4.1643128 -0.056412473 2257509
-2.2110276 -4.1415696 -0.06291683 2257510
-2.1950221 -4.1231499 -0.071565881 2257511
-2.1608248 -4.0817165 -0.067237347 2257512
-2.1272843 -4.0410681 -0.062875375 2257513
-2.1000588 -4.0083675 -0.0625709 2257514
-2.0683765 -3.9699879 -0.058631878 2257515
-2.0519893 -3.950949 -0.065515153 2257516
-2.0288703 -3.9233558 -0.067173392 2257517
-2.00804 -3.8986375 -0.070242979 2257518
-1.9922799 -3.8803318 -0.076909915 2257519
-1.9547729 -3.8343782 -0.066567026 2257520
-1.9363097 -3.8125834 -0.07054393 2257521
-1.9145436 -3.7865648 -0.071666017 2257522
-1.8911626 -3.7584629 -0.071193263 2257523
-1.875017 -3.7395473 -0.076246157 2257524
-1.8533822 -3.7136164 -0.076602086 2257525
-1.8482796 -3.7087448 -0.090343006 2257526
-1.8206726 -3.6751494 -0.085241482 2257527
-1.8155559 -3.6702409 -0.098762341 2257528
-1.7776996 -3.6234894 -0.084259629 2257529
-1.7508566 -3.5907667 -0.078672208 2257530
-1.7457803 -3.5858631 -0.091716081 2257531
-4.4658709 -6.801651 0.0084772753 2258179
-4.3889709 -6.7106891 0.0012290805 2258180
-4.1885223 -6.4714012 0.0063377544 2258182
-4.1181459 -6.3881102 0.00021099919 2258183
-3.6404362 -5.8184147 0.0060504051 2258189
-3.6105592 -5.7842469 -0.0096351178 2258190
-3.5508006 -5.7132998 -0.012398379 2258191
-3.4953973 -5.6476364 -0.016206332 2258192
-3.4528441 -5.5977249 -0.024852931 2258193
-3.3860548 -5.5179076 -0.022203906 2258194
-3.3181772 -5.4366646 -0.018132037 2258195
-3.2679813 -5.3771391 -0.021207392 2258196
-3.2305522 -5.3333044 -0.029543841 2258197
-3.1726549 -5.2641544 -0.027697656 2258198
-3.1281154 -5.211432 -0.031470567 2258199
-3.0878537 -5.1639419 -0.036729503 2258200
-3.0410469 -5.1083078 -0.038197078 2258201
-3.0009117 -5.0608706 -0.042385805 2258202
-2.9488759 -4.9986496 -0.039935451 2258203
-2.898139 -4.9379716 -0.037429765 2258204
-2.8689623 -4.9039526 -0.045593239 2258205
-2.8195877 -4.8448491 -0.042557042 2258206
-2.7732863 -4.7894959 -0.040494908 2258207
-2.7418995 -4.7526026 -0.046010096 2258208
-2.7046397 -4.708375 -0.04782192 2258209
-2.6780756 -4.6773968 -0.055194631 2258210
-2.6226604 -4.6105003 -0.045613371 2258211
-2.582093 -4.5620093 -0.043892384 2258212
-2.5715532 -4.5508628 -0.059375215 2258213
-2.5299301 -4.5009742 -0.056118648 2258214
-2.4977582 -4.4628162 -0.058017537 2258215
-2.4609768 -4.4188676 -0.056634028 2258216
-2.4266055 -4.3778801 -0.056237072 2258217
-2.403348 -4.3507304 -0.062393758 2258218
-2.36678 -4.3069181 -0.05971536 2258219
-2.3308764 -4.2638888 -0.056946158 2258220
-2.3077614 -4.2368159 -0.06207893 2258221
-2.2766113 -4.1996551 -0.061555665 2258222
-2.2535784 -4.1726241 -0.066072829 2258223
-2.2202539 -4.1326632 -0.063254438 2258224
-2.1978858 -4.1064029 -0.067537792 2258225
-2.1715541 -4.075141 -0.068751074 2258226
-2.1407175 -4.0381875 -0.066406496 2258227
-2.1071143 -3.9977162 -0.061633151 2258228
-2.0866451 -3.9737179 -0.065907568 2258229
-2.0628121 -3.9454618 -0.06744194 2258230
-2.0362046 -3.9136825 -0.066585273 2258231
-2.0158532 -3.8897514 -0.070060372 2258232
-1.9921653 -3.8615894 -0.070725478 2258233
-1.9662875 -3.8306344 -0.069373555 2258234
-1.9404732 -3.7997258 -0.067700975 2258235
-1.9247588 -3.7815421 -0.07361991 2258236
-1.9018303 -3.7542219 -0.073595025 2258237
-1.8894932 -3.7402697 -0.081789732 2258238
-1.8500478 -3.6919928 -0.067741685 2258239
-1.8355739 -3.6752875 -0.073662356 2258240
-1.8161597 -3.6523046 -0.075289875 2258241
-1.8017249 -3.6356132 -0.080851622 2258242
-1.7785462 -3.6078088 -0.07878416 2258243
-1.7707142 -3.5994632 -0.089607842 2258244
-1.7508854 -3.5758674 -0.089925759 2258245
-1.7251309 -3.5447106 -0.084745437 2258246
-4.3594804 -6.6499577 0.014348263 2258895
-4.2682605 -6.5418644 0.013332405 2258896
-4.1877041 -6.4466467 0.0098085552 2258897
-4.133234 -6.383121 -0.0020046502 2258898
-3.6683185 -5.8317289 -0.0019212839 2258904
-3.5948558 -5.7444115 0.00018018702 2258905
-3.5398669 -5.6796165 -0.0044447803 2258906
-3.5069373 -5.6417732 -0.017739493 2258907
-3.453294 -5.5785069 -0.02162406 2258908
-3.4033833 -5.5197506 -0.026429616 2258909
-3.3268027 -5.4282117 -0.018573703 2258910
-3.2880025 -5.3829536 -0.026904332 2258911
-3.2359161 -5.3213296 -0.028551312 2258912
-3.1875463 -5.2642088 -0.0312395 2258913
-3.1350284 -5.2019262 -0.031276532 2258914
-3.0922501 -5.1515617 -0.03533842 2258915
-3.0555553 -5.108634 -0.041836537 2258916
-2.9954774 -5.0368576 -0.036080536 2258917
-2.9499226 -4.9829044 -0.036895722 2258918
-2.9038522 -4.9282584 -0.036815148 2258919
-2.8746018 -4.894309 -0.044955991 2258920
-2.8239055 -4.8338466 -0.041255239 2258921
-2.7816546 -4.7837529 -0.041419942 2258922
-2.7513714 -4.7483988 -0.047587082 2258923
-2.7098556 -4.6991158 -0.047084659 2258924
-2.6832254 -4.6682019 -0.054435574 2258925
-2.6318028 -4.6065564 -0.047202919 2258926
-2.5881741 -4.5545006 -0.043767732 2258927
-2.565835 -4.5287828 -0.052286919 2258928
-2.5223641 -4.4768248 -0.047876883 2258929
-2.5030336 -4.4547753 -0.057495303 2258930
-2.4474339 -4.3876581 -0.044575818 2258931
-2.4427919 -4.3837934 -0.062590353 2258932
-2.4083812 -4.3429122 -0.061815243 2258933
-2.3723006 -4.2999086 -0.059489135 2258934
-2.3374639 -4.2584076 -0.057456698 2258935
-2.3090758 -4.2248955 -0.059163786 2258936
-2.2761204 -4.1856542 -0.05744537 2258937
-2.2524645 -4.1579695 -0.061521459 2258938
-2.2213683 -4.1209707 -0.060212653 2258939
-2.2075603 -4.1055222 -0.070397824 2258940
-2.1748514 -4.0664411 -0.067227878 2258941
-2.1382258 -4.0224195 -0.060815554 2258942
-2.1170917 -3.9977314 -0.064954288 2258943
-2.0959897 -3.9730587 -0.068840124 2258944
-2.0579026 -3.9270818 -0.059991986 2258945
-2.0448315 -3.9124126 -0.069134884 2258946
-2.0153859 -3.8771906 -0.065842144 2258947
-1.9950289 -3.8533373 -0.069026351 2258948
-1.9741449 -3.8287978 -0.071536064 2258949
-1.9521786 -3.8028724 -0.072923943 2258950
-1.9224317 -3.7671344 -0.067891099 2258951
-1.9055949 -3.7476029 -0.072686046 2258952
-1.8854431 -3.7238774 -0.074601844 2258953
-1.8575653 -3.6903918 -0.069958121 2258954
-1.8391739 -3.6688299 -0.072704598 2258955
-1.8180568 -3.6438067 -0.072939172 2258956
-1.8041425 -3.6278508 -0.078937665 2258957
-1.7798113 -3.5987186 -0.075912394 2258958
-1.7774422 -3.597321 -0.091414511 2258959
-1.7493682 -3.5634067 -0.084622033 2258960
-1.7295506 -3.539906 -0.08465229 2258961
-4.4711075 -6.7576652 0.012967208 2259611
-4.3620749 -6.6286139 0.016587993 2259612
-4.2731109 -6.5237484 0.014798113 2259613
-4.1948318 -6.4317288 0.01046368 2259614
-4.1371222 -6.3645687 -0.0001954317 2259615
-3.6950121 -5.843462 -0.0093872873 2259621
-3.6286976 -5.7652659 -0.010412155 2259622
-3.5655568 -5.690855 -0.011855737 2259623
-3.5153739 -5.6321654 -0.017953549 2259624
-3.4744263 -5.5846825 -0.027381755 2259625
-3.3499048 -5.4351296 0.00057340978 2259626
-3.3055155 -5.3832879 -0.005607984 2259627
-3.2995136 -5.3783054 -0.028705077 2259628
-3.2557886 -5.3271947 -0.034301598 2259629
-3.191505 -5.2508769 -0.029623473 2259630
-3.1394603 -5.1894598 -0.029906267 2259631
-3.0983887 -5.1414185 -0.034812775 2259632
-3.0555663 -5.0911818 -0.038303711 2259633
-3.0037761 -5.0298944 -0.036712024 2259634
-2.9580998 -4.9760437 -0.03751795 2259635
-2.9143076 -4.9244485 -0.038671054 2259636
-2.8807809 -4.8854094 -0.044618051 2259637
-2.8311491 -4.8265343 -0.041532811 2259638
-2.7917719 -4.7802076 -0.043300528 2259639
-2.7590199 -4.7419848 -0.048168942 2259640
-2.7263153 -4.7037807 -0.052629035 2259641
-2.6776314 -4.6458497 -0.047622398 2259642
-2.6420956 -4.604064 -0.049458541 2259643
-2.5971618 -4.550642 -0.045347411 2259644
-2.582433 -4.5344419 -0.058395699 2259645
-2.5317583 -4.4738359 -0.049819577 2259646
-2.4970877 -4.4329386 -0.050196178 2259647
-2.455446 -4.3833785 -0.045815736 2259648
-2.4566443 -4.386766 -0.06747821 2259649
-2.4063525 -4.3264208 -0.056805797 2259650
-2.3748581 -4.2892923 -0.057388812 2259651
-2.348664 -4.2586942 -0.06096391 2259652
-2.3045161 -4.2057972 -0.052431379 2259653
-2.2871373 -4.1860609 -0.061004512 2259654
-2.255316 -4.1483722 -0.059672207 2259655
-2.2264514 -4.114316 -0.059902091 2259656
-2.2085814 -4.0938931 -0.067302674 2259657
-2.1763713 -4.0556107 -0.064490415 2259658
-2.1562703 -4.0323601 -0.069762155 2259659
-2.1287656 -3.9998639 -0.069489546 2259660
-2.0904896 -3.953907 -0.061044578 2259661
-2.0756485 -3.9371264 -0.069172494 2259662
-2.0545702 -3.9125462 -0.072513893 2259663
-2.0239043 -3.8759677 -0.068394706 2259664
-2.000098 -3.8479202 -0.06902653 2259665
-1.9718369 -3.8142722 -0.065912656 2259666
-1.9453366 -3.7827899 -0.063754342 2259667
-1.932356 -3.7682002 -0.071822643 2259668
-1.9009274 -3.730485 -0.065109536 2259669
-1.9091868 -3.7424824 -0.089777961 2259670
-1.875069 -3.7013397 -0.08029072 2259671
-1.8527136 -3.6749148 -0.079931349 2259672
-1.8160269 -3.6304586 -0.067361258 2259673
-1.7993357 -3.611084 -0.070991427 2259674
-1.7958778 -3.6083353 -0.08563561 2259675
-1.7720693 -3.5799744 -0.082853332 2259676
-1.7488748 -3.5523546 -0.080253929 2259677
-1.7317483 -3.5323524 -0.082634047 2259678
-1.7162871 -3.5144296 -0.086262435 2259679
-4.6992226 -6.961463 0.014619809 2260328
-4.5803542 -6.8224063 0.018387325 2260329
-4.4917889 -6.7194691 0.013832128 2260330
-4.3832893 -6.5925517 0.017158495 2260331
-4.284976 -6.477705 0.018478215 2260332
-4.2205696 -6.4033833 0.0092731798 2260333
-4.1556091 -6.32832 0.0011188767 2260334
-3.7359242 -5.8376932 0.010713313 2260339
-3.718039 -5.8187456 -0.010413363 2260340
-3.653137 -5.743165 -0.012143901 2260341
-3.5766101 -5.6534986 -0.0081567345 2260342
-3.5341222 -5.6047707 -0.017528677 2260343
-3.4898314 -5.5538173 -0.025571376 2260344
-3.4019661 -5.4502225 -0.013926172 2260345
-3.348031 -5.3874874 -0.016176775 2260346
-3.3156209 -5.3506937 -0.027459376 2260347
-3.2703898 -5.2983627 -0.032422639 2260348
-3.2124026 -5.230547 -0.030803893 2260349
-3.157572 -5.1664791 -0.029889643 2260350
-3.1223152 -5.1260467 -0.037694361 2260351
-3.0804155 -5.0775232 -0.04177643 2260352
-3.0203874 -5.0069695 -0.036245774 2260353
-2.9725959 -4.9511838 -0.036077648 2260354
-2.9357717 -4.9086504 -0.040899318 2260355
-2.9014134 -4.8690677 -0.046521615 2260356
-2.8496408 -4.8082814 -0.042456053 2260357
-2.8106022 -4.7629128 -0.044518221 2260358
-2.7608333 -4.7044406 -0.040192347 2260359
-2.7477021 -4.6905074 -0.055462334 2260360
-2.7100418 -4.6466842 -0.056826945 2260361
-2.6497834 -4.5752702 -0.044801671 2260362
-2.6224294 -4.5439057 -0.05091355 2260363
-2.5885735 -4.5045753 -0.052864015 2260364
-2.5441051 -4.4522443 -0.048053462 2260365
-2.5032935 -4.4043241 -0.044812515 2260366
-2.4590323 -4.3521342 -0.038891595 2260367
-2.453783 -4.3476076 -0.056453291 2260368
-2.4155467 -4.3027053 -0.053353213 2260369
-2.3820958 -4.2636147 -0.052749705 2260370
-2.3510597 -4.2274413 -0.053234141 2260371
-2.3200874 -4.1913071 -0.053333808 2260372
-2.2950118 -4.1623688 -0.056894541 2260373
-2.2682321 -4.1313086 -0.05898637 2260374
-2.244405 -4.1038432 -0.06271407 2260375
-2.2188787 -4.0742598 -0.064965613 2260376
-2.1916659 -4.0425711 -0.065705478 2260377
-2.1708529 -4.0187254 -0.070562012 2260378
-2.1425896 -3.9856796 -0.069862247 2260379
-2.1149645 -3.9533849 -0.069226764 2260380
-2.0942745 -3.9296067 -0.073249407 2260381
-2.0621912 -3.8917453 -0.068619408 2260382
-2.0478621 -3.8757634 -0.076743357 2260383
-2.0079544 -3.8281636 -0.065436713 2260384
-1.9840553 -3.8003006 -0.065722674 2260385
-1.9641691 -3.7773721 -0.068772361 2260386
-1.9460102 -3.7565579 -0.072908446 2260387
-1.9290038 -3.7371504 -0.077722237 2260388
-1.895178 -3.6968746 -0.068905421 2260389
-1.8810592 -3.6809964 -0.075473242 2260390
-1.8490788 -3.6429331 -0.067305453 2260391
-1.829456 -3.6201746 -0.068844981 2260392
-1.8170953 -3.6064177 -0.076177038 2260393
-1.8069528 -3.5954077 -0.085247599 2260394
-1.7796737 -3.5630612 -0.079614453 2260395
-1.7486233 -3.5259807 -0.070319518 2260396
-1.7489994 -3.5280223 -0.087922275 2260397
-1.7262973 -3.5012913 -0.085303448 2260398
-4.8471284 -7.0458651 0.013527766 2261043
-4.7130852 -6.8912234 0.02026256 2261044
-4.6223531 -6.7874422 0.015004611 2261045
-4.5342703 -6.6866732 0.010092867 2261046
-4.4127965 -6.5464153 0.017483184 2261047
-4.327518 -6.4487205 0.014209789 2261048
-4.2511868 -6.3614855 0.0089683738 2261049
-4.2177792 -6.3248682 -0.010485161 2261050
-3.7710741 -5.8099122 0.0076202564 2261055
-3.7480326 -5.7851772 -0.01151222 2261056
-3.6806915 -5.7078776 -0.012414092 2261057
-3.6047413 -5.6202793 -0.0088510774 2261058
-3.5625069 -5.5726199 -0.018426213 2261059
-3.5072756 -5.5094695 -0.0218972 2261060
-3.4595666 -5.4551945 -0.027905343 2261061
-3.3636472 -5.3435202 -0.011938996 2261062
-3.3427141 -5.3209629 -0.028385203 2261063
-3.299556 -5.2719202 -0.034426283 2261064
-3.2336659 -5.1957417 -0.029324897 2261065
-3.1765189 -5.1299033 -0.027446585 2261066
-3.1501753 -5.1007371 -0.039584324 2261067
-3.0772645 -5.0159626 -0.028680244 2261068
-3.0033002 -4.9298368 -0.016226057 2261069
-2.9881425 -4.9138842 -0.032320246 2261070
-2.97296 -4.8978887 -0.048252255 2261071
-2.9230661 -4.8403535 -0.046030384 2261072
-2.8811712 -4.7923307 -0.047332533 2261073
-2.8332882 -4.7370844 -0.04487057 2261074
-2.8030574 -4.7029328 -0.0513146 2261075
-2.7644064 -4.658649 -0.052741621 2261076
-2.7191937 -4.6064444 -0.049988322 2261077
-2.6800971 -4.5615258 -0.050066952 2261078
-2.6428797 -4.518816 -0.050690468 2261079
-2.6117289 -4.4833527 -0.054335874 2261080
-2.5740476 -4.4399977 -0.0537218 2261081
-2.5340559 -4.3938146 -0.05121097 2261082
-2.5072629 -4.3634753 -0.056134082 2261083
-2.4662373 -4.3159542 -0.051980365 2261084
-2.4359913 -4.2813783 -0.053948913 2261085
-2.4046171 -4.2454038 -0.054801825 2261086
-2.3857143 -4.2244453 -0.063184217 2261087
-2.3461854 -4.1785526 -0.05801817 2261088
-2.3155828 -4.1433978 -0.058129404 2261089
-2.2838709 -4.1068625 -0.057087112 2261090
-2.2703886 -4.0923486 -0.067836128 2261091
-2.2387805 -4.0558734 -0.06613645 2261092
-2.2072465 -4.0194473 -0.064046904 2261093
-2.1856787 -3.995065 -0.068452515 2261094
-2.1670446 -3.9742167 -0.074649468 2261095
-2.134532 -3.9364991 -0.07072363 2261096
-2.1032605 -3.9002471 -0.067228653 2261097
-2.0841732 -3.8787653 -0.072184317 2261098
-2.059937 -3.8509986 -0.073097184 2261099
-2.0311637 -3.8176796 -0.070290104 2261100
-2.0104747 -3.7941697 -0.073186994 2261101
-1.9858273 -3.765811 -0.072785608 2261102
-1.9623762 -3.7388799 -0.072968617 2261103
-1.950334 -3.7258425 -0.081758313 2261104
-1.9394203 -3.7141721 -0.091320656 2261105
-1.9002531 -3.6679678 -0.078166798 2261106
-1.8803803 -3.6453009 -0.08002156 2261107
-1.8442513 -3.6027188 -0.068307273 2261108
-1.8334687 -3.5911205 -0.077006824 2261109
-1.8249148 -3.5822437 -0.087469161 2261110
-1.7968341 -3.5494194 -0.081353858 2261111
-1.7816272 -3.5323522 -0.085824892 2261112
-1.7614509 -3.509167 -0.085815415 2261113
-1.7391119 -3.483299 -0.083637372 2261114
-1.724551 -3.4669647 -0.088006727 2261115
-4.9730992 -7.1086254 0.019763829 2261761
-4.8461595 -6.9645367 0.022631349 2261762
-4.7424364 -6.8472538 0.020004118 2261763
-4.6631303 -6.7582145 0.011014868 2261764
-4.5705132 -6.6536074 0.0073782895 2261765
-4.4467993 -6.5127158 0.0152717 2261766
-4.3602071 -6.414876 0.012280353 2261767
-4.2959833 -6.342979 0.0027125881 2261768
-3.8031392 -5.7843871 0.0046909973 2261774
-3.7660637 -5.7436209 -0.0089528142 2261775
-3.698833 -5.6675396 -0.0099812848 2261776
-3.6329665 -5.5929728 -0.010670136 2261777
-3.5885172 -5.543407 -0.019424524 2261778
-3.5272191 -5.4740467 -0.020445349 2261779
-3.4341578 -5.3673725 -0.0069076694 2261780
-3.3974459 -5.3266826 -0.016865181 2261781
-3.3694854 -5.2962232 -0.030275328 2261782
-3.3110604 -5.2299547 -0.029498013 2261783
-3.253983 -5.1651978 -0.028554965 2261784
-3.2149856 -5.1216292 -0.035332981 2261785
-3.1785116 -5.0809832 -0.042812649 2261786
-3.1451676 -5.0439796 -0.051343717 2261787
-3.0526576 -4.9372492 -0.030324608 2261788
-3.0268714 -4.9090352 -0.041343283 2261789
-3.0004826 -4.8800826 -0.051746912 2261790
-2.9458921 -4.8178248 -0.047302097 2261791
-2.8963177 -4.7614212 -0.044727553 2261792
-2.8578484 -4.7180738 -0.047366232 2261793
-2.8206644 -4.6761994 -0.05018694 2261794
-2.7914584 -4.6437168 -0.056872565 2261795
-2.7331147 -4.5767174 -0.047050744 2261796
-2.6931162 -4.5313659 -0.046706755 2261797
-2.6622798 -4.4968214 -0.051038086 2261798
-2.6224263 -4.4515495 -0.049763035 2261799
-2.5910997 -4.4163442 -0.052934114 2261800
-2.5507987 -4.3704476 -0.050369836 2261801
-2.5256026 -4.3424425 -0.056330852 2261802
-2.4908481 -4.3030477 -0.056151513 2261803
-2.4579601 -4.26583 -0.056652524 2261804
-2.4221542 -4.2250996 -0.054885041 2261805
-2.401319 -4.2021499 -0.062107373 2261806
-2.3608902 -4.1558328 -0.056507092 2261807
-2.3294613 -4.120193 -0.056181528 2261808
-2.3099349 -4.0987129 -0.063259229 2261809
-2.275665 -4.0596128 -0.060280673 2261810
-2.2585628 -4.0409746 -0.068402648 2261811
-2.2267752 -4.0047669 -0.066301152 2261812
-2.1933048 -3.966506 -0.062594578 2261813
-2.1897581 -3.9640126 -0.079350062 2261814
-2.1447182 -3.9118345 -0.06675683 2261815
-2.1248617 -3.8897712 -0.071535148 2261816
-2.0968995 -3.8579664 -0.070188738 2261817
-2.0614707 -3.8171678 -0.062977374 2261818
-2.0405996 -3.7937999 -0.066052638 2261819
-2.0209177 -3.7718363 -0.069751278 2261820
-2.0029926 -3.7519619 -0.074534267 2261821
-1.9747629 -3.719671 -0.071179666 2261822
-1.9592012 -3.7025931 -0.077266224 2261823
-1.9430822 -3.6848271 -0.082733236 2261824
-1.9150231 -3.6526518 -0.078519315 2261825
-1.8813657 -3.6136863 -0.069400586 2261826
-1.8506517 -3.578228 -0.062165409 2261827
-1.8550593 -3.5851479 -0.083327524 2261828
-1.825013 -3.5504415 -0.076044172 2261829
-1.797312 -3.5185304 -0.070279174 2261830
-1.795471 -3.5178804 -0.086056389 2261831
-1.7628449 -3.4799511 -0.075478256 2261832
-1.7565234 -3.4738562 -0.087209657 2261833
-1.7390608 -3.4542475 -0.089153402 2261834
-4.9762568 -7.1372561 0.01610343 2262478
-4.8163881 -6.9541712 0.02892804 2262479
-4.7365432 -6.8642111 0.019069711 2262480
-4.6434016 -6.7586408 0.014481243 2262481
-4.5395617 -6.6404676 0.014604034 2262482
-4.4365125 -6.5230918 0.015856797 2262483
-4.3494935 -6.4243255 0.013060832 2262484
-4.2835226 -6.3500676 0.0041398676 2262485
-3.8220689 -5.82586 -0.0056480384 2262491
-3.7523866 -5.7466478 -0.0065353001 2262492
-3.6853244 -5.6704283 -0.0075462358 2262493
-3.6359029 -5.614861 -0.014913096 2262494
-3.577163 -5.5482764 -0.017735705 2262495
-3.5091498 -5.4707088 -0.015825544 2262496
-3.4468689 -5.3998065 -0.015477615 2262497
-3.3971434 -5.3436179 -0.019823665 2262498
-3.3543255 -5.2955122 -0.026609199 2262499
-3.2997744 -5.2335176 -0.027492385 2262500
-3.2292147 -5.152565 -0.020228047 2262501
-3.1785908 -5.0950632 -0.021371117 2262502
-3.1638567 -5.0799007 -0.038997192 2262503
-3.1121178 -5.0209813 -0.03850811 2262504
-3.0623214 -4.9642959 -0.038276792 2262505
-3.011389 -4.9062047 -0.036802795 2262506
-2.9715915 -4.8612366 -0.040298231 2262507
-2.9385881 -4.8242707 -0.046775501 2262508
-2.8848579 -4.7626925 -0.041969541 2262509
-2.8507569 -4.7243328 -0.046855435 2262510
-2.8087935 -4.6766 -0.047056623 2262511
-2.7814896 -4.6462269 -0.054711685 2262512
-2.7214732 -4.5769463 -0.043870218 2262513
-2.6809759 -4.5307989 -0.043160174 2262514
-2.665323 -4.5141625 -0.056077361 2262515
-2.6152997 -4.4565911 -0.048945758 2262516
-2.5756278 -4.4112868 -0.047178533 2262517
-2.5450475 -4.37677 -0.050270967 2262518
-2.5282993 -4.3587155 -0.061294362 2262519
-2.47926 -4.3021049 -0.052421205 2262520
-2.4470592 -4.2655392 -0.053260792 2262521
-2.4161129 -4.2304335 -0.054452445 2262522
-2.3887925 -4.1996245 -0.057529818 2262523
-2.3561823 -4.1624551 -0.056847855 2262524
-2.3200941 -4.1210804 -0.053454228 2262525
-2.3023934 -4.101687 -0.061679069 2262526
-2.266443 -4.0603995 -0.057514813 2262527
-2.2435136 -4.0346828 -0.06164363 2262528
-2.2147553 -4.0019445 -0.061490018 2262529
-2.1983454 -3.9839997 -0.069497049 2262530
-2.1632662 -3.943603 -0.064228155 2262531
-2.1445863 -3.9228806 -0.070092574 2262532
-2.1201181 -3.8951724 -0.071572959 2262533
-2.0933809 -3.8647025 -0.071077704 2262534
-2.0626583 -3.8293972 -0.067284696 2262535
-2.0452821 -3.810143 -0.072980791 2262536
-2.0181453 -3.779094 -0.071122363 2262537
-2.0054224 -3.7654111 -0.079855375 2262538
-1.9703729 -3.7247462 -0.071268171 2262539
-1.9588438 -3.7124646 -0.080473654 2262540
-1.9307926 -3.6801879 -0.076555908 2262541
-1.9045246 -3.650033 -0.073653735 2262542
-1.8749287 -3.615813 -0.067696251 2262543
-1.8606793 -3.6001537 -0.073799454 2262544
-1.8430597 -3.5803919 -0.076964483 2262545
-1.8249077 -3.5599637 -0.079461627 2262546
-1.8101518 -3.5436387 -0.084581643 2262547
-1.7998835 -3.5327516 -0.093344942 2262548
-1.7661967 -3.4933748 -0.081875071 2262549
-1.742638 -3.4662762 -0.078682356 2262550
-1.7357752 -3.4594803 -0.089817457 2262551
-4.8589983 -7.0290003 0.013123839 2263194
-4.7181873 -6.8672619 0.021896539 2263195
-4.6405406 -6.7793722 0.012478456 2263196
-4.5718675 -6.7019114 0.001160807 2263197
-4.3815122 -6.4816113 0.031197332 2263198
-4.3397298 -6.4354749 0.01340727 2263199
-4.2789807 -6.3670149 0.0027112858 2263200
-3.8241694 -5.8457079 0.018953567 2263205
-3.8186214 -5.8417664 -0.0074137668 2263206
-3.7472236 -5.7601795 -0.0076088835 2263207
-3.6753175 -5.677906 -0.0066358824 2263208
-3.6216476 -5.6170707 -0.012205495 2263209
-3.5680501 -5.5562563 -0.017097922 2263210
-3.5095463 -5.4895792 -0.019187165 2263211
-3.4337275 -5.4023561 -0.01297321 2263212
-3.3872361 -5.3497372 -0.018669879 2263213
-3.3463857 -5.3037405 -0.026289759 2263214
-3.2833059 -5.2313647 -0.02323122 2263215
-3.2364106 -5.1780925 -0.026821418 2263216
-3.1902044 -5.1255803 -0.030114157 2263217
-3.1403763 -5.0687151 -0.031056941 2263218
-3.0930953 -5.0148125 -0.032567926 2263219
-3.0348501 -4.9478273 -0.028023316 2263220
-3.0018435 -4.9107685 -0.035344351 2263221
-2.9645936 -4.8686247 -0.040081035 2263222
-2.9158008 -4.8126998 -0.038357351 2263223
-2.8768549 -4.7684393 -0.041136384 2263224
-2.8483133 -4.7365274 -0.048940849 2263225
-2.7961249 -4.676393 -0.043603409 2263226
-2.7434494 -4.6156111 -0.037270512 2263227
-2.71509 -4.5837846 -0.043722987 2263228
-2.6777101 -4.5411525 -0.044726562 2263229
-2.6518474 -4.5122375 -0.051813208 2263230
-2.6230056 -4.4797311 -0.056848753 2263231
-2.5726023 -4.4213929 -0.048837468 2263232
-2.5361021 -4.3796344 -0.048391607 2263233
-2.5140214 -4.3551035 -0.056153934 2263234
-2.47347 -4.3084087 -0.05234595 2263235
-2.4395621 -4.2696304 -0.052088443 2263236
-2.4199803 -4.2480021 -0.060365047 2263237
-2.3790743 -4.2007461 -0.054843448 2263238
-2.3489187 -4.1663547 -0.055667587 2263239
-2.3270853 -4.141932 -0.061515082 2263240
-2.2876132 -4.0962639 -0.05543365 2263241
-2.2693977 -4.0761337 -0.063009866 2263242
-2.2300913 -4.0305781 -0.056082897 2263243
-2.2107801 -4.0090723 -0.062300701 2263244
-2.1920724 -3.9882727 -0.068702102 2263245
-2.1570821 -3.9478009 -0.063435674 2263246
-2.1233485 -3.9088016 -0.058559954 2263247
-2.1059315 -3.8894753 -0.064942062 2263248
-2.0775471 -3.8568683 -0.063129351 2263249
-2.0544229 -3.83059 -0.064794816 2263250
-2.0342205 -3.8078213 -0.068330109 2263251
-2.0169203 -3.7885454 -0.073794544 2263252
-1.9864739 -3.7533119 -0.069019407 2263253
-1.961253 -3.7243779 -0.067835137 2263254
-1.9452065 -3.7065492 -0.073459238 2263255
-1.9070216 -3.6618097 -0.06141651 2263256
-1.9125968 -3.6702116 -0.083719909 2263257
-1.8734334 -3.6242101 -0.07010185 2263258
-1.8535742 -3.6016512 -0.071630284 2263259
-1.8405012 -3.5873339 -0.078494437 2263260
-1.8179033 -3.561394 -0.077268131 2263261
-1.8003949 -3.5416329 -0.080017239 2263262
-1.7901659 -3.530736 -0.088748001 2263263
-1.7549088 -3.4892616 -0.075811915 2263264
-1.7469516 -3.4811034 -0.086104043 2263265
-1.7345519 -3.4675071 -0.092432253 2263266
-1.7039654 -3.4316387 -0.082438275 2263267
-4.7288661 -6.8709755 0.019381845 2263906
-4.6435089 -6.7742066 0.012357507 2263907
-4.5531716 -6.6715045 0.0080813523 2263908
-4.4362993 -6.5376101 0.013825377 2263909
-4.3481441 -6.4372296 0.011405973 2263910
-3.8358688 -5.8522706 0.015382795 2263916
-3.8227701 -5.8394585 -0.0081010396 2263917
-3.7506819 -5.7571878 -0.0080441004 2263918
-3.6699474 -5.6646442 -0.00351797 2263919
-3.6256208 -5.6149116 -0.012885442 2263920
-3.5632367 -5.5438318 -0.014113161 2263921
-3.4978385 -5.4691195 -0.01321736 2263922
-3.4450011 -5.4091563 -0.016887579 2263923
-3.3903792 -5.3470216 -0.019068627 2263924
-3.3525946 -5.3047218 -0.028076734 2263925
-3.2851191 -5.2272635 -0.023054166 2263926
-3.240658 -5.1769552 -0.027778471 2263927
-3.1981132 -5.1288629 -0.032820754 2263928
-3.1396055 -5.0618076 -0.029659772 2263929
-3.0738318 -4.9860663 -0.022162201 2263930
-3.0284715 -4.934454 -0.023834595 2263931
-3.0064878 -4.9105306 -0.036626715 2263932
-2.9587979 -4.8560572 -0.036072686 2263933
-2.9105883 -4.8009081 -0.034602087 2263934
-2.8704028 -4.7552381 -0.03668347 2263935
-2.8400271 -4.7211895 -0.043450788 2263936
-2.79632 -4.6712375 -0.042629413 2263937
-2.7733197 -4.6458936 -0.0525597 2263938
-2.7121964 -4.5750914 -0.041025423 2263939
-2.6868768 -4.5469046 -0.048799366 2263940
-2.6513312 -4.5064874 -0.050414376 2263941
-2.6086287 -4.4574828 -0.047405932 2263942
-2.5804369 -4.4257588 -0.052328777 2263943
-2.5534844 -4.395483 -0.057626061 2263944
-2.5187922 -4.3559189 -0.057908032 2263945
-2.4829757 -4.3149662 -0.057032112 2263946
-2.439492 -4.2647872 -0.050914969 2263947
-2.4169259 -4.2396164 -0.057308093 2263948
-2.3872659 -4.205915 -0.058911208 2263949
-2.3600309 -4.1750865 -0.061678514 2263950
-2.3269372 -4.1371922 -0.060265847 2263951
-2.2992225 -4.1057181 -0.061948139 2263952
-2.2739139 -4.0771022 -0.064868249 2263953
-2.2416079 -4.04004 -0.062719509 2263954
-2.2093799 -4.0030303 -0.060173236 2263955
-2.1924162 -3.9843621 -0.067764372 2263956
-2.161478 -3.9488363 -0.065346457 2263957
-2.1329415 -3.916167 -0.064201184 2263958
-2.1137516 -3.8947392 -0.069381848 2263959
-2.0870643 -3.8642373 -0.068868898 2263960
-2.0569751 -3.8295925 -0.06548357 2263961
-2.0304203 -3.7991812 -0.064302608 2263962
-2.0188627 -3.7868791 -0.074054517 2263963
-1.9843792 -3.7468145 -0.066218905 2263964
-1.9637181 -3.7234468 -0.068530098 2263965
-1.9402455 -3.6966465 -0.068376921 2263966
-1.9247876 -3.679538 -0.074222758 2263967
-1.9014046 -3.6527941 -0.073564954 2263968
-1.8809061 -3.6295238 -0.07490962 2263969
-1.8553734 -3.6001105 -0.071873687 2263970
-1.8377881 -3.5803289 -0.075024672 2263971
-1.8157437 -3.5551004 -0.074233092 2263972
-1.7898371 -3.5251405 -0.069878727 2263973
-1.7846552 -3.5204024 -0.082803465 2263974
-1.7794377 -3.5156212 -0.095697716 2263975
-1.7397785 -3.4688084 -0.078606337 2263976
-1.7329268 -3.4620023 -0.089742027 2263977
-1.710048 -3.435607 -0.086592481 2263978
-4.9644265 -7.1005931 0.021400597 2264621
-4.7338357 -6.8391852 0.021765471 2264623
-4.6436996 -6.7375154 0.016279247 2264624
-4.5409217 -6.6210341 0.016085092 2264625
-4.4300132 -6.4949675 0.019959539 2264626
-4.3625498 -6.4193468 0.010621027 2264627
-3.816926 -5.8019829 -0.0014742553 2264634
-3.7515166 -5.7280707 -0.0039943103 2264635
-3.6943769 -5.6637564 -0.0089794351 2264636
-3.6404543 -5.6031394 -0.014532949 2264637
-3.5803387 -5.5352039 -0.016790329 2264638
-3.5203178 -5.4673061 -0.018287133 2264639
-3.4572713 -5.3957877 -0.017672755 2264640
-3.4061859 -5.3382277 -0.021472959 2264641
-3.3539319 -5.2792344 -0.024074946 2264642
-3.3048701 -5.2239285 -0.02743463 2264643
-3.2589877 -5.1723008 -0.031615015 2264644
-3.2063572 -5.1126809 -0.032020491 2264645
-3.1575329 -5.0574765 -0.033535391 2264646
-3.1094091 -5.0030375 -0.034737691 2264647
-3.0545886 -4.9406495 -0.031996727 2264648
-3.0084946 -4.8884816 -0.032871865 2264649
-2.9747708 -4.8508501 -0.03940947 2264650
-2.927597 -4.7973037 -0.038582966 2264651
-2.886637 -4.7510376 -0.040366944 2264652
-2.8426936 -4.7011962 -0.04002104 2264653
-2.8043251 -4.6578932 -0.042082503 2264654
-2.7501962 -4.5958967 -0.035023402 2264655
-2.7211087 -4.5634766 -0.041081045 2264656
-2.6938775 -4.5332217 -0.047811311 2264657
-2.6582036 -4.492929 -0.049389262 2264658
-2.6364896 -4.4691491 -0.058554027 2264659
-2.582834 -4.4074407 -0.048758347 2264660
-2.5582018 -4.3801255 -0.055421468 2264661
-2.5329962 -4.3521013 -0.061433084 2264662
-2.4916418 -4.3048491 -0.057285726 2264663
-2.4414175 -4.2469926 -0.047083311 2264664
-2.4253459 -4.2297244 -0.057522066 2264665
-2.3872397 -4.1861954 -0.053824101 2264666
-2.3575447 -4.1526423 -0.054991663 2264667
-2.3255367 -4.1162944 -0.054257579 2264668
-2.2947822 -4.0814028 -0.053910721 2264669
-2.2788522 -4.0641747 -0.063024379 2264670
-2.2493777 -4.0307469 -0.062823236 2264671
-2.218205 -3.9952526 -0.061060224 2264672
-2.1947281 -3.9689255 -0.064186066 2264673
-2.1660268 -3.9363167 -0.063350871 2264674
-2.1391423 -3.9058483 -0.063407712 2264675
-2.1111522 -3.8740218 -0.062306453 2264676
-2.0878744 -3.8478117 -0.064236321 2264677
-2.063483 -3.8202374 -0.065040849 2264678
-2.0460792 -3.8010247 -0.070704617 2264679
-2.0090914 -3.7582581 -0.06144923 2264680
-1.9911995 -3.738405 -0.066152178 2264681
-1.9670206 -3.7109666 -0.065802731 2264682
-1.9503371 -3.6925235 -0.070947506 2264683
-1.927395 -3.6665208 -0.070970565 2264684
-1.9045056 -3.6405532 -0.070722096 2264685
-1.8856444 -3.6194174 -0.073397681 2264686
-1.8673837 -3.5989842 -0.076317459 2264687
-1.850849 -3.580615 -0.08042156 2264688
-1.8382807 -3.567023 -0.087617077 2264689
-1.8026853 -3.5255594 -0.075335436 2264690
-1.7733815 -3.4916625 -0.06784156 2264691
-1.7799263 -3.5011566 -0.090677746 2264692
-1.7618598 -3.4808328 -0.092376865 2264693
-1.7349427 -3.4497495 -0.08607544 2264694
-1.7241765 -3.4382377 -0.093684457 2264695
-1.7001529 -3.4106095 -0.089313366 2264696
-5.0699868 -7.1798334 0.030416025 2265336
-4.8299131 -6.9095154 0.030789673 2265338
-4.7444744 -6.8140631 0.022672761 2265339
-4.6533647 -6.7119613 0.017468017 2265340
-4.5521278 -6.5980511 0.016739443 2265341
-4.4113894 -6.4383602 0.030411486 2265342
-4.372457 -6.3962355 0.011630565 2265343
-3.8956411 -5.8603497 0.0013847925 2265349
-3.8634205 -5.8255572 -0.014931659 2265350
-3.7781334 -5.7290812 -0.0099094333 2265351
-3.7157128 -5.6590805 -0.012927883 2265352
-3.6527565 -5.5883813 -0.014900859 2265353
-3.5873835 -5.5147939 -0.015030357 2265354
-3.5183532 -5.4368682 -0.012734593 2265355
-3.4607351 -5.3721538 -0.01443044 2265356
-3.4226189 -5.3301029 -0.023916129 2265357
-3.3682866 -5.2690945 -0.02568673 2265358
-3.3078032 -5.2008414 -0.023944853 2265359
-3.2623858 -5.1501079 -0.028331703 2265360
-3.2226336 -5.1059394 -0.034777712 2265361
-3.1711335 -5.0479898 -0.03512048 2265362
-3.1141462 -4.9835587 -0.032120593 2265363
-3.0758395 -4.9409223 -0.037517123 2265364
-3.0252299 -4.883832 -0.036284354 2265365
-2.9728692 -4.8246269 -0.033480592 2265366
-2.9360054 -4.7835283 -0.037925377 2265367
-2.9004257 -4.7438927 -0.042559803 2265368
-2.8526309 -4.6898756 -0.040269889 2265369
-2.8257515 -4.6603665 -0.048555542 2265370
-2.7713976 -4.5985365 -0.041549742 2265371
-2.7336414 -4.5561566 -0.042952292 2265372
-2.7050858 -4.5245576 -0.049004912 2265373
-2.661984 -4.4757986 -0.046435364 2265374
-2.6274667 -4.4370995 -0.048216932 2265375
-2.6039052 -4.4112744 -0.055934612 2265376
-2.5574148 -4.3583765 -0.049801569 2265377
-2.5249023 -4.321918 -0.051396336 2265378
-2.4858348 -4.2776775 -0.048576392 2265379
-2.4552603 -4.2434258 -0.05044473 2265380
-2.4277382 -4.2127461 -0.053810943 2265381
-2.3930888 -4.1736012 -0.052317854 2265382
-2.3668675 -4.1443911 -0.055741474 2265383
-2.3442602 -4.119432 -0.061166663 2265384
-2.3204947 -4.0930743 -0.065549836 2265385
-2.2825434 -4.0498619 -0.060207792 2265386
-2.2494223 -4.0123339 -0.057576198 2265387
-2.2393861 -4.002182 -0.070200644 2265388
-2.2087295 -3.9675162 -0.068536282 2265389
-2.1734486 -3.9273129 -0.063223079 2265390
-2.1464646 -3.8969369 -0.063263841 2265391
-2.1271369 -3.8756447 -0.068408109 2265392
-2.098506 -3.8432455 -0.066589557 2265393
-2.0757608 -3.8178282 -0.068678416 2265394
-2.0478382 -3.7862062 -0.066637099 2265395
-2.033875 -3.7712147 -0.074656278 2265396
-2.0008636 -3.7334538 -0.068101533 2265397
-1.9858023 -3.7171071 -0.074813455 2265398
-1.9621352 -3.6904504 -0.074687876 2265399
-1.9339393 -3.6583433 -0.070691265 2265400
-1.9115376 -3.6331398 -0.070880882 2265401
-1.8937465 -3.613435 -0.074460104 2265402
-1.8612043 -3.5760169 -0.065865926 2265403
-1.8395412 -3.5516119 -0.065693133 2265404
-1.8303678 -3.5421815 -0.07556697 2265405
-1.7986256 -3.5056188 -0.066475026 2265406
-1.7827364 -3.4880793 -0.070316523 2265407
-1.7741601 -3.4793236 -0.08021827 2265408
-1.7493514 -3.4510117 -0.076022007 2265409
-1.7379997 -3.4388862 -0.083224006 2265410
-1.7316519 -3.4327853 -0.094732091 2265411
-1.7053176 -3.4025598 -0.088377796 2265412
-4.9373574 -7.0104952 0.035674967 2266057
-4.8246045 -6.8840919 0.034564268 2266058
-4.7441645 -6.794713 0.024968805 2266059
-4.6477532 -6.6868615 0.021464387 2266060
-4.5303011 -6.5546699 0.026027413 2266061
-4.4469972 -6.4616723 0.020896271 2266062
-4.3881178 -6.3967266 0.0086281886 2266063
-3.9020782 -5.8520741 0.0013055728 2266069
-3.8482461 -5.7923999 -0.0066566588 2266070
-3.7792852 -5.715147 -0.0079587176 2266071
-3.7047448 -5.6313467 -0.0061041946 2266072
-3.6562107 -5.5776 -0.013879668 2266073
-3.5919783 -5.50559 -0.014499113 2266074
-3.5247068 -5.4299755 -0.01297575 2266075
-3.4694922 -5.368278 -0.015741415 2266076
-3.4137366 -5.3058863 -0.017540779 2266077
-3.3731024 -5.2610044 -0.02533571 2266078
-3.3143816 -5.1950388 -0.024422115 2266079
-3.2676291 -5.14293 -0.028227875 2266080
-3.2172079 -5.0864935 -0.029704759 2266081
-3.1656287 -5.0286469 -0.029961023 2266082
-3.1271858 -4.986052 -0.035867803 2266083
-3.0757728 -4.9282827 -0.03492181 2266084
-3.0380752 -4.8864589 -0.040110055 2266085
-2.9763334 -4.8165102 -0.032660864 2266086
-2.9326184 -4.767549 -0.033603758 2266087
-2.8969872 -4.7279878 -0.038171344 2266088
-2.8644814 -4.6920404 -0.043927927 2266089
-2.8222039 -4.6446161 -0.044032741 2266090
-2.7806203 -4.5979528 -0.043947089 2266091
-2.7378955 -4.549902 -0.042673443 2266092
-2.7037983 -4.5119162 -0.045644224 2266093
-2.672802 -4.4775281 -0.049926069 2266094
-2.6303091 -4.4296055 -0.047199719 2266095
-2.6018567 -4.3981252 -0.052071497 2266096
-2.57284 -4.3659492 -0.056246258 2266097
-2.526355 -4.31319 -0.049592666 2266098
-2.495657 -4.278954 -0.051859532 2266099
-2.4602027 -4.239079 -0.050799713 2266100
-2.4362285 -4.2126904 -0.056403268 2266101
-2.4021039 -4.174304 -0.055307139 2266102
-2.365664 -4.1331439 -0.052267335 2266103
-2.3531635 -4.1202035 -0.064205326 2266104
-2.3311281 -4.0959878 -0.069782048 2266105
-2.2948718 -4.0549345 -0.065655693 2266106
-2.2616696 -4.0174479 -0.063071407 2266107
-2.2338674 -3.9863117 -0.063696407 2266108
-2.2090712 -3.9587021 -0.066016488 2266109
-2.1713789 -3.9157779 -0.059031837 2266110
-2.1508141 -3.8931179 -0.063574538 2266111
-2.1326206 -3.8732486 -0.06955108 2266112
-2.1010113 -3.8374276 -0.065628804 2266113
-2.0706518 -3.8030512 -0.062171947 2266114
-2.0525796 -3.783247 -0.067363054 2266115
-2.0287309 -3.7565491 -0.068017863 2266116
-2.0049338 -3.7298834 -0.068391345 2266117
-1.9881128 -3.7115004 -0.073777668 2266118
-1.9678575 -3.6890044 -0.076307043 2266119
-1.9407512 -3.6583114 -0.073216312 2266120
-1.917154 -3.6317725 -0.072516337 2266121
-1.8941848 -3.6059546 -0.071994446 2266122
-1.8667148 -3.5747275 -0.067517497 2266123
-1.8540936 -3.5612273 -0.074783988 2266124
-1.8488388 -3.5565333 -0.088007651 2266125
-1.8085216 -3.5098379 -0.071929157 2266126
-1.7880781 -3.4869077 -0.072002925 2266127
-1.7710534 -3.4680533 -0.074718155 2266128
-1.7534992 -3.4485435 -0.076759204 2266129
-1.7482692 -3.4438179 -0.089324974 2266130
-1.7307489 -3.4243178 -0.091053665 2266131
-1.7021551 -3.3914762 -0.082685426 2266132
-1.6847392 -3.3720505 -0.083944134 2266133
-5.1023936 -7.1773334 0.025254667 2266771
-4.94661 -7.002244 0.034981668 2266772
-4.8259096 -6.8671575 0.036220215 2266773
-4.7491961 -6.7823477 0.025494894 2266774
-4.6532555 -6.675395 0.021826569 2266775
-4.5285225 -6.5352864 0.028706966 2266776
-4.4508548 -6.4490662 0.021752086 2266777
-4.3937964 -6.3864312 0.0088747796 2266778
-3.9258454 -5.8618259 0.023364233 2266783
-3.9151516 -5.8521194 -0.0014137797 2266784
-3.8491464 -5.7786117 -0.0047431723 2266785
-3.7794335 -5.7007461 -0.0057437518 2266786
-3.7079325 -5.6207314 -0.0051018754 2266787
-3.6479337 -5.5539193 -0.0081999544 2266788
-3.596864 -5.4973574 -0.014217182 2266789
-3.5269504 -5.4189386 -0.01160594 2266790
-3.4728997 -5.3587933 -0.014875919 2266791
-3.425216 -5.3059568 -0.020219631 2266792
-3.375088 -5.2502313 -0.023856711 2266793
-3.3219042 -5.1909037 -0.025454562 2266794
-3.2819426 -5.1468496 -0.032423589 2266795
-3.2270448 -5.0854135 -0.031906649 2266796
-3.164145 -5.0146165 -0.026857592 2266797
-3.113199 -4.9576325 -0.026711555 2266798
-3.0809822 -4.9223638 -0.035050329 2266799
-3.0382557 -4.8748317 -0.0377638 2266800
-2.9813623 -4.8107562 -0.032767411 2266801
-2.9394224 -4.7640276 -0.034649462 2266802
-2.9006395 -4.7209282 -0.037617341 2266803
-2.8625362 -4.6785755 -0.040434822 2266804
-2.8306415 -4.6434216 -0.046074104 2266805
-2.7877491 -4.5953898 -0.045337353 2266806
-2.7467792 -4.549552 -0.045081034 2266807
-2.7040575 -4.501616 -0.043295972 2266808
-2.6663048 -4.4594398 -0.043743454 2266809
-2.6261916 -4.4144545 -0.042330656 2266810
-2.5898077 -4.3737874 -0.042543367 2266811
-2.5686533 -4.3509226 -0.051246971 2266812
-2.5251262 -4.3018017 -0.046333484 2266813
-2.5028367 -4.2775431 -0.053673275 2266814
-2.4757478 -4.2476258 -0.057799369 2266815
-2.4354727 -4.2021871 -0.05338363 2266816
-2.4054968 -4.1688032 -0.054890238 2266817
-2.3695915 -4.1284089 -0.05221894 2266818
-2.356472 -4.1147876 -0.063765384 2266819
-2.323669 -4.0779738 -0.062315512 2266820
-2.2915359 -4.0419083 -0.060860321 2266821
-2.2660046 -4.013588 -0.063390158 2266822
-2.2428877 -3.9880857 -0.067225203 2266823
-2.2139001 -3.9556255 -0.066733517 2266824
-2.1790838 -3.9162436 -0.061796267 2266825
-2.1549451 -3.8894396 -0.063877776 2266826
-2.1320255 -3.864049 -0.066510782 2266827
-2.1103172 -3.8400652 -0.06971927 2266828
-2.0863111 -3.8133342 -0.070974432 2266829
-2.0582771 -3.7818005 -0.06894099 2266830
-2.0245049 -3.7434254 -0.062236592 2266831
-2.007638 -3.7250693 -0.067799538 2266832
-1.9913669 -3.7074027 -0.073616937 2266833
-1.9664634 -3.67946 -0.072578736 2266834
-1.9416208 -3.6515584 -0.071244903 2266835
-1.9179877 -3.6250651 -0.070522368 2266836
-1.8989882 -3.6040599 -0.073175222 2266837
-1.8771707 -3.5796745 -0.073308676 2266838
-1.8428842 -3.5403936 -0.062968493 2266839
-1.8365245 -3.5343895 -0.075154573 2266840
-1.8029683 -3.4959085 -0.064629227 2266841
-1.7915425 -3.4838247 -0.072255388 2266842
-1.7924975 -3.4865348 -0.090323702 2266843
-1.7664413 -3.4569345 -0.085229188 2266844
-1.747183 -3.4354389 -0.085671961 2266845
-1.7363402 -3.4240038 -0.093263224 2266846
-1.7121394 -3.3965416 -0.088866569 2266847
-1.6963365 -3.3791242 -0.091664553 2266848
-5.1288195 -7.184135 0.020164626 2267490
-4.9454942 -6.9783373 0.03780945 2267491
-4.8846641 -6.9121051 0.021055074 2267492
-4.7670479 -6.7809639 0.022551758 2267493
-4.6515412 -6.652091 0.024944438 2267494
-4.5529585 -6.5424242 0.023424176 2267495
-4.4615936 -6.4408941 0.020831766 2267496
-4.4056945 -6.3798413 0.0075276485 2267497
-3.9430873 -5.8634706 0.019656869 2267502
-3.929172 -5.8501182 -0.0039678421 2267503
-3.8381941 -5.7482185 0.0022548218 2267504
-3.7721698 -5.6748924 -0.00010230946 2267505
-3.7087853 -5.6045237 -0.0026451112 2267506
-3.662607 -5.5538807 -0.011362912 2267507
-3.5854745 -5.4675403 -0.0066566435 2267508
-3.5312314 -5.4074779 -0.010568486 2267509
-3.4789605 -5.3496246 -0.014617081 2267510
-3.4349539 -5.3012424 -0.021590237 2267511
-3.3526449 -5.2086005 -0.01099593 2267512
-3.3207376 -5.1740627 -0.022017542 2267513
-3.2700477 -5.1177859 -0.024034351 2267514
-3.250103 -5.0969954 -0.039712451 2267515
-3.1832905 -5.021966 -0.03298261 2267516
-3.1297183 -4.9621792 -0.031707395 2267517
-3.0905671 -4.9190302 -0.036758043 2267518
-3.0409064 -4.863656 -0.036090277 2267519
-2.9894795 -4.8061728 -0.033867482 2267520
-2.9511611 -4.7638359 -0.037650455 2267521
-2.9061024 -4.7136288 -0.037438352 2267522
-2.8734713 -4.6778035 -0.043164816 2267523
-2.8328767 -4.6326842 -0.044223096 2267524
-2.7898982 -4.584743 -0.043450855 2267525
-2.7586634 -4.5504165 -0.048553202 2267526
-2.7109385 -4.496851 -0.044068456 2267527
-2.6767695 -4.4590211 -0.046585847 2267528
-2.6402199 -4.418375 -0.047291752 2267529
-2.6128726 -4.3884201 -0.052853722 2267530
-2.575233 -4.3464193 -0.052014325 2267531
-2.5340345 -4.3002157 -0.048544303 2267532
-2.4989834 -4.2611451 -0.048222087 2267533
-2.467628 -4.2263541 -0.049691044 2267534
-2.4447687 -4.2014675 -0.056014724 2267535
-2.4044974 -4.1561666 -0.051118448 2267536
-2.3763275 -4.1249938 -0.053360712 2267537
-2.3398273 -4.0840211 -0.049865611 2267538
-2.3129752 -4.0543208 -0.052160557 2267539
-2.2927287 -4.0323429 -0.058469083 2267540
-2.2742877 -4.0124631 -0.065741159 2267541
-2.2416191 -3.9758418 -0.063163102 2267542
-2.2250154 -3.9580731 -0.071145244 2267543
-2.1918812 -3.9208333 -0.067471586 2267544
-2.1635468 -3.8892038 -0.066704467 2267545
-2.138217 -3.8610797 -0.067686632 2267546
-2.1076615 -3.8267632 -0.06457445 2267547
-2.0912266 -3.8090694 -0.071307622 2267548
-2.0596297 -3.7734561 -0.066692285 2267549
-2.0339425 -3.7447846 -0.066027716 2267550
-2.0152848 -3.7243917 -0.07030715 2267551
-1.9925987 -3.6992123 -0.071287163 2267552
-1.9688051 -3.6726942 -0.071111917 2267553
-1.9450669 -3.6462123 -0.070657015 2267554
-1.9300075 -3.6299894 -0.076717801 2267555
-1.9046403 -3.6015232 -0.074392401 2267556
-1.8741945 -3.5669961 -0.067619085 2267557
-1.8558209 -3.5467682 -0.070232034 2267558
-1.8448745 -3.5353479 -0.078727268 2267559
-1.8106662 -3.496248 -0.067751192 2267560
-1.7952466 -3.4794652 -0.072065674 2267561
-1.7719501 -3.4532828 -0.069492713 2267562
-1.7633439 -3.4445813 -0.079222731 2267563
-1.7435029 -3.422473 -0.079125471 2267564
-1.734337 -3.4130824 -0.088135913 2267565
-1.7290624 -3.4083335 -0.10052862 2267566
-1.7020661 -3.3776193 -0.093432531 2267567
-1.6773803 -3.3496318 -0.088022277 2267568
-5.0972581 -7.1227012 0.031921219 2268207
-4.968039 -6.9792204 0.033896152 2268208
-4.8629851 -6.8630424 0.030321511 2268209
-4.7651901 -6.754992 0.025893832 2268210
-4.705018 -6.6896229 0.010921131 2268211
-4.5635319 -6.5316348 0.022833986 2268212
-4.4745264 -6.4332404 0.019415125 2268213
-4.4139824 -6.3671703 0.0076199663 2268214
-3.9675524 -5.8715525 0.013511675 2268219
-3.9286668 -5.8297291 -0.00079267408 2268220
-3.8438637 -5.7353344 0.0030572196 2268221
-3.7840564 -5.6694469 -0.0017614308 2268222
-3.7313297 -5.6115985 -0.0086291069 2268223
-3.6678703 -5.541389 -0.010453532 2268224
-3.5918264 -5.4566741 -0.0062335702 2268225
-3.525424 -5.3829279 -0.0050519193 2268226
-3.483799 -5.337543 -0.013599722 2268227
-3.4333792 -5.2820096 -0.017789327 2268228
-3.3842938 -5.2279496 -0.021913737 2268229
-3.3233247 -5.1601667 -0.020046746 2268230
-3.2844596 -5.1177416 -0.027481399 2268231
-3.2343488 -5.062325 -0.029192688 2268232
-3.1761823 -4.9975691 -0.026435865 2268233
-3.1337585 -4.9508872 -0.030453051 2268234
-3.0970156 -4.9107065 -0.03668892 2268235
-3.0540903 -4.8633494 -0.039396331 2268236
-3.0012856 -4.8045335 -0.036576573 2268237
-2.9560385 -4.7543845 -0.036898419 2268238
-2.9201708 -4.715024 -0.041473772 2268239
-2.8849745 -4.6763978 -0.04594009 2268240
-2.8368657 -4.6227856 -0.04307178 2268241
-2.7956381 -4.5770826 -0.043270599 2268242
-2.7532597 -4.5299969 -0.042289179 2268243
-2.7207901 -4.4943485 -0.046247356 2268244
-2.6761172 -4.4445033 -0.042907048 2268245
-2.6425512 -4.4074974 -0.045305025 2268246
-2.6181982 -4.3811536 -0.05260146 2268247
-2.5713348 -4.3286176 -0.046382602 2268248
-2.5349205 -4.2881756 -0.045729928 2268249
-2.5082877 -4.2590728 -0.050485708 2268250
-2.473824 -4.22082 -0.050120257 2268251
-2.4412456 -4.1847215 -0.050458349 2268252
-2.4039111 -4.1430387 -0.047379568 2268253
-2.3895211 -4.128078 -0.058356889 2268254
-2.3631198 -4.0990825 -0.061464608 2268255
-2.3199964 -4.0505209 -0.053342316 2268256
-2.2859559 -4.0125208 -0.05059436 2268257
-2.2865756 -4.0150185 -0.070513673 2268258
-2.2538137 -3.9784553 -0.067973673 2268259
-2.2205386 -3.9412501 -0.064630762 2268260
-2.1891239 -3.906183 -0.062113341 2268261
-2.1696012 -3.8850217 -0.067493744 2268262
-2.1394944 -3.8514192 -0.065132834 2268263
-2.1182814 -3.828222 -0.068736136 2268264
-2.0906513 -3.7974606 -0.067413196 2268265
-2.0677681 -3.7722456 -0.069197677 2268266
-2.043179 -3.7449968 -0.069415383 2268267
-2.0128233 -3.7109287 -0.064968944 2268268
-2.0034575 -3.7015488 -0.076046564 2268269
-1.9674287 -3.6607308 -0.066554569 2268270
-1.950582 -3.6424925 -0.071443036 2268271
-1.9268414 -3.6160979 -0.070708521 2268272
-1.9066068 -3.5938153 -0.07243719 2268273
-1.8858393 -3.5708787 -0.073473476 2268274
-1.8628299 -3.5452654 -0.072411925 2268275
-1.852421 -3.534538 -0.08138907 2268276
-1.8289257 -3.5083015 -0.07940156 2268277
-1.8043592 -3.4807653 -0.076185718 2268278
-1.7928684 -3.4687071 -0.0837202 2268279
-1.7740461 -3.4479361 -0.084849909 2268280
-1.7603248 -3.4332018 -0.090155318 2268281
-1.7331601 -3.4024737 -0.083521001 2268282
-1.7139131 -3.3811266 -0.083493814 2268283
-1.701959 -3.3684371 -0.089734361 2268284
-1.6788942 -3.3425007 -0.085797936 2268285
-5.2186899 -7.2310114 0.036328923 2268924
-5.128715 -7.1326585 0.025452131 2268925
-5.0056648 -6.9968019 0.025424249 2268926
-4.8762927 -6.8536453 0.028911887 2268927
-4.7840981 -6.7524176 0.022704225 2268928
-4.7082186 -6.6695595 0.012576802 2268929
-4.570931 -6.5170217 0.023120791 2268930
