# .PCD v0.7 - Point Cloud Data file format
VERSION 0.7
FIELDS x y z intensity
SIZE 4 4 4 4
TYPE F F F F
COUNT 1 1 1 1
WIDTH 1196
HEIGHT 1
VIEWPOINT 0 0 0 1 0 0 0
POINTS 1196
DATA ascii
-2.3320842 -8.2046261 1.4308434 2162030
-2.331001 -8.2045164 1.3986255 2162031
-1.8714935 -6.9060698 1.1850419 2162040
-2.3358722 -8.2069407 1.559715 2162740
-2.3343163 -8.2054739 1.5274789 2162741
-2.3353455 -8.2114286 1.4952333 2162742
-2.3343544 -8.211585 1.4629822 2162743
-2.3346314 -8.2153854 1.4306839 2162744
-2.3319049 -8.2105532 1.3985002 2162745
-2.3555689 -8.2125063 1.5917914 2163454
-2.3523927 -8.206459 1.5594686 2163455
-2.3524821 -8.2097149 1.5272158 2163456
-2.351862 -8.2109499 1.4949436 2163457
-2.3498719 -8.2082777 1.462694 2163458
-2.3471751 -8.2035856 1.4304961 2163459
-2.3480682 -8.2091408 1.3981621 2163460
-2.3744521 -8.218585 1.5913345 2164170
-2.3749206 -8.2229166 1.5590179 2164171
-2.371011 -8.2148581 1.5266541 2164172
-2.3693876 -8.2132664 1.4943444 2164173
-2.3680501 -8.2124834 1.4620447 2164174
-2.3656683 -8.2087393 1.4297915 2164175
-2.3659008 -8.2124071 1.3974425 2164176
1.0339081 1.2910249 0.073804878 2164778
-2.3975575 -8.2167711 1.5904558 2164890
-2.3950055 -8.2126236 1.5580665 2164891
-2.3937507 -8.2121105 1.5257232 2164892
-2.3937917 -8.2152328 1.4933742 2164893
-2.3914354 -8.211628 1.4610553 2164894
-2.3890324 -8.2078896 1.4287722 2164895
-2.3892663 -8.2115555 1.3963925 2164896
-2.4269269 -8.2168732 1.5896187 2165606
-2.4246869 -8.2136765 1.5571917 2165607
-2.4224 -8.2103462 1.524799 2165608
-2.42278 -8.2144079 1.4924114 2165609
-2.4224331 -8.2164564 1.4600055 2165610
-2.4206815 -8.2146082 1.427633 2165611
-2.4188828 -8.2126274 1.3952798 2165612
-2.4540286 -8.2147226 1.5565472 2166326
-2.4524031 -8.2132797 1.5241082 2166327
-2.4517577 -8.2145243 1.4916753 2166328
-2.4493508 -8.2109375 1.459275 2166329
-2.4458694 -8.2043991 1.4269483 2166330
-2.4437106 -8.2014856 1.394617 2166331
-2.5307896 -8.1926413 1.5539676 2167042
-2.5291171 -8.1912174 1.5215042 2167043
-2.5270424 -8.1887245 1.4890623 2167044
-2.5249183 -8.1860991 1.4566472 2167045
-2.5227454 -8.183341 1.4242594 2167046
-2.5205233 -8.1804504 1.3918997 2167047
-2.6050136 -8.1684923 1.5514289 2167758
-2.6051085 -8.1717463 1.5189489 2167759
-2.6011634 -8.1646156 1.4864923 2167760
-2.6000683 -8.1648083 1.4540352 2167761
-2.5981972 -8.1630049 1.4216057 2167762
-2.5962756 -8.1610699 1.3891956 2167763
-2.6409357 -8.1641045 1.549878 2168473
-2.6358929 -8.1543331 1.5173634 2168474
-2.6352036 -8.155592 1.4848882 2168475
-2.635195 -8.1585789 1.4523869 2168476
-2.6340339 -8.1586428 1.4199009 2168477
-2.6361187 -8.1669483 1.3872567 2168478
-2.6257882 -8.1797266 1.5505451 2169189
-2.6244233 -8.1792536 1.5179874 2169190
-2.6240997 -8.1814423 1.4854246 2169191
-2.6171677 -8.1667366 1.4530067 2169192
-2.6160142 -8.1667976 1.4205163 2169193
-2.6180842 -8.1751089 1.3878682 2169194
-2.6111069 -8.1961966 1.5513657 2169906
-2.6093874 -8.1947899 1.5187643 2169907
-2.6054456 -8.1876564 1.4862075 2169908
-2.6036253 -8.1859837 1.4536678 2169909
-2.6032004 -8.1879072 1.4210937 2169910
-2.6038082 -8.1924953 1.3884513 2169911
-2.638145 -8.1931543 1.5502164 2170623
-2.6364095 -8.1917524 1.517585 2170624
-2.6349876 -8.1911488 1.4849664 2170625
-2.634244 -8.1922741 1.4523392 2170626
-2.6341782 -8.1951294 1.4196777 2170627
-2.6329651 -8.1950588 1.3870453 2170628
1.1302656 1.271176 0.069020346 2171227
-2.663408 -8.1713333 1.5490996 2171340
-2.6642406 -8.1764431 1.5165136 2171341
-2.662066 -8.1739855 1.4839226 2171342
-2.6653745 -8.185338 1.4512208 2171343
-2.6627257 -8.1816864 1.4186324 2171344
-2.6629748 -8.185339 1.3859375 2171345
-2.6814547 -8.1554871 1.5485995 2172055
-2.6789458 -8.1522417 1.5160531 2172056
-2.6841962 -8.1683569 1.483439 2172057
-2.68344 -8.1694889 1.4508253 2172058
-2.6818874 -8.1686316 1.4182315 2172059
-2.6791675 -8.1648579 1.3857023 2172060
-2.6747596 -8.1183043 1.5482073 2172771
-2.676353 -8.1252642 1.5158163 2172772
-2.6793835 -8.1358061 1.4833447 2172773
-2.6819847 -8.1452885 1.4507871 2172774
-2.6815495 -8.1472168 1.4182527 2172775
-2.6832955 -8.1545811 1.3855948 2172776
-2.6666338 -8.0784483 1.5477357 2173488
-2.6689849 -8.0872593 1.5155177 2173489
-2.6705329 -8.0940857 1.4832313 2173490
-2.6742682 -8.1063471 1.4508286 2173491
-2.6745853 -8.1101303 1.4184369 2173492
-2.6782084 -8.1221304 1.38585 2173493
-2.6662772 -8.023571 1.5468876 2174203
-2.6727931 -8.0425625 1.5148839 2174204
-2.6724761 -8.0447502 1.4827967 2174205
-2.6743629 -8.0523682 1.4506364 2174206
-2.6784508 -8.0654144 1.4183249 2174207
-2.6768429 -8.0644341 1.3861654 2174208
1.162621 1.2601525 0.069200233 2174809
-2.6744723 -7.9857049 1.5143402 2174923
-2.6752985 -7.9906678 1.4824646 2174924
-2.6794825 -8.00383 1.4504606 2174925
-2.6783037 -8.0039101 1.4185297 2174926
-2.6835117 -8.0195913 1.3862913 2174927
-2.6882823 -8.0342169 1.3539295 2174928
-2.6758585 -7.9440317 1.5140066 2175643
-2.6793652 -7.9554625 1.4822602 2175644
-2.6809092 -7.9621444 1.4504578 2175645
-2.6831601 -7.9705472 1.4185678 2175646
-2.6884029 -7.9862165 1.3864549 2175647
-2.6878753 -7.9878917 1.3545359 2175648
-2.6558037 -7.9057879 1.5141612 2176359
-2.6631217 -7.9264646 1.4825509 2176360
-2.660099 -7.922051 1.4510068 2176361
-2.6589286 -7.9221325 1.4194381 2176362
-2.6645541 -7.9387302 1.3875427 2176363
-2.6651771 -7.9431796 1.3557869 2176364
-2.6335363 -7.8630223 1.5145167 2177076
-2.6362858 -7.8726039 1.483178 2177077
-2.6382196 -7.8802099 1.4517719 2177078
-2.6423795 -7.893239 1.4202141 2177079
-2.6430635 -7.8978181 1.3887 2177080
-2.6497691 -7.9170666 1.3567836 2177081
1.1244713 1.1344789 0.066415899 2177678
-2.6314852 -7.7847624 1.4825879 2177798
-2.6334515 -7.7923579 1.451543 2177799
-2.6322927 -7.7924428 1.4205415 2177800
-2.6437433 -7.8228712 1.388936 2177801
-2.6520622 -7.845787 1.3572271 2177802
-2.6568699 -7.8602657 1.325547 2177803
1.1335858 1.1278778 0.068278007 2178397
1.1946886 1.2735744 0.056724999 2178402
-2.6459739 -7.7027411 1.4816852 2178517
-2.6479819 -7.7103233 1.4509445 2178518
-2.6483765 -7.7140994 1.4201922 2178519
-2.6604042 -7.7453761 1.3888505 2178520
-2.6696415 -7.7700825 1.357375 2178521
-2.6729784 -7.7808509 1.3260763 2178522
1.1526654 1.1283125 0.064426214 2179110
1.1640409 1.1550214 0.063025273 2179111
1.1897066 1.2150232 0.057063464 2179113
1.1943141 1.2266663 0.065413393 2179114
-2.6732867 -7.6627908 1.4803752 2179230
-2.6713746 -7.6611753 1.4498472 2179231
-2.6690152 -7.6585178 1.4193524 2179232
-2.672528 -7.669517 1.3886044 2179233
-2.6763783 -7.6813111 1.3577311 2179234
-2.6793823 -7.6911454 1.3268025 2179235
-2.6799626 -7.695344 1.2959726 2179236
1.1638787 1.1149982 0.069412321 2179828
1.1728711 1.1360582 0.071393318 2179829
1.1793329 1.1515716 0.076929733 2179830
1.191602 1.1798688 0.074913263 2179831
1.2670498 1.3542101 0.066083409 2179837
-2.6721244 -7.6327796 1.4802113 2179948
-2.6650531 -7.6192331 1.4499367 2179949
-2.6603134 -7.6110721 1.4197077 2179950
-2.6709809 -7.638588 1.3888257 2179951
-2.6744545 -7.6494594 1.3581014 2179952
-2.6762869 -7.6565366 1.3273858 2179953
-2.6780636 -7.6634903 1.2966042 2179954
1.1695623 1.1172915 0.067101888 2180544
1.1713291 1.1224619 0.07884492 2180545
1.1821691 1.1474906 0.078525558 2180546
1.2786652 1.3685788 0.057113148 2180553
1.2840943 1.3819041 0.06549152 2180554
-2.6714585 -7.6066389 1.4493318 2180665
-2.6722744 -7.6113262 1.4189394 2180666
-2.6722403 -7.6140575 1.3885431 2180667
-2.6733449 -7.6194186 1.3580534 2180668
-2.6771765 -7.6310787 1.3273213 2180669
-2.6769781 -7.6334438 1.2967992 2180670
1.1781911 1.1259552 0.060920592 2181257
1.1854396 1.1430545 0.065408289 2181258
1.1846551 1.1426586 0.080660738 2181259
1.2874002 1.3764906 0.051863 2181266
1.2906336 1.3849626 0.063003547 2181267
-2.6750197 -7.5767269 1.4490819 2181378
-2.6754444 -7.5804954 1.4188174 2181379
-2.6782134 -7.589642 1.3884062 2181380
-2.6833236 -7.6041656 1.3577702 2181381
-2.6811852 -7.6020718 1.3274962 2181382
-2.6817896 -7.6062713 1.297019 2181383
1.2000409 1.1617271 0.067829974 2181977
1.2018132 1.166888 0.079796612 2181978
1.2952554 1.3779124 0.049815245 2181984
1.3007431 1.3912487 0.058261935 2181985
-2.6876495 -7.5613256 1.4485608 2182096
-2.6872735 -7.5632625 1.4183649 2182097
-2.6868436 -7.5650787 1.3881534 2182098
-2.6919875 -7.5795898 1.3575991 2182099
-2.6938581 -7.5866556 1.3271307 2182100
-2.6956725 -7.5936003 1.2965962 2182101
1.2224334 1.1942811 0.061845358 2182693
1.2227384 1.1962709 0.075879186 2182694
1.2337809 1.2213917 0.076227188 2182695
1.2916152 1.3502007 0.048185434 2182698
1.3068601 1.3845078 0.044622432 2182699
1.3105148 1.3938055 0.055378113 2182700
1.3122751 1.3990119 0.068434469 2182701
-2.6904345 -7.5218344 1.4482025 2182811
-2.6884434 -7.5201139 1.4182185 2182812
-2.6953008 -7.5383892 1.3878322 2182813
-2.70048 -7.5528865 1.357368 2182814
-2.6979201 -7.549891 1.3272973 2182815
-2.7037923 -7.5659747 1.2965794 2182816
-2.7059693 -7.5737076 1.2660382 2182817
1.3187317 1.3909423 0.039456379 2183417
1.3194014 1.3937855 0.05387656 2183418
-2.703887 -7.5100608 1.3273408 2183533
-2.7089939 -7.5243006 1.2968339 2183534
-2.7132277 -7.5365925 1.2662652 2183535
1.3309985 1.3964189 0.050629899 2184135
1.3293682 1.3943553 0.067767113 2184136
1.3411931 1.3957664 0.049201682 2184853
1.3391712 1.3929071 0.06680195 2184854
1.354979 1.4012887 0.044175886 2185571
1.3525648 1.3976517 0.062269948 2185572
1.3630474 1.3905121 0.031934477 2186287
1.3641398 1.3941857 0.045981906 2186288
1.3632594 1.3937725 0.062272552 2186289
1.3725435 1.3841633 0.033278424 2187004
1.3748176 1.3902347 0.045963947 2187005
1.3762833 1.3946488 0.059572693 2187006
1.3677452 1.3618803 0.044867687 2187724
1.3798327 1.3879302 0.046170585 2187725
1.3820913 1.3939478 0.058884453 2187726
1.3658068 1.3458312 0.03707549 2188442
1.3574725 1.3303149 0.061889671 2188443
1.3810072 1.3794924 0.049960591 2188444
1.391166 1.4015392 0.053693917 2188445
1.3733596 1.3491397 0.034070302 2189161
1.3638136 1.3312573 0.060275953 2189162
1.3724037 1.3500067 0.06551607 2189163
1.395659 1.3984281 0.054353978 2189164
1.3979168 1.4044081 0.067139298 2189165
1.3778412 1.3441256 0.035747644 2189880
1.3998357 1.3925486 0.05644989 2189883
1.4040954 1.4025295 0.067003369 2189884
1.3803873 1.3350581 0.039672147 2190598
1.4064627 1.3913895 0.055813361 2190601
1.4123455 1.4045724 0.064602062 2190602
1.3812588 1.3336511 0.040178634 2191316
1.3953477 1.3659704 0.069725424 2191319
1.413246 1.4031435 0.06509386 2191320
1.3888339 1.3487402 0.031467091 2192036
1.4148595 1.4063478 0.063327931 2192040
1.393847 1.3482993 0.030740594 2192753
1.4191599 1.4042783 0.063523225 2192757
1.4013335 1.3180121 0.043928683 2193471
1.4367254 1.3927757 0.065674841 2193475
1.4070339 1.2845361 0.058974437 2194191
1.4540117 1.3803027 0.06830693 2194195
1.4065944 1.257916 0.071812727 2194911
1.470571 1.385041 0.063037045 2194915
1.4753822 1.3766017 0.06601949 2195634
1.4331847 1.2741439 0.043120671 2196346
1.4847794 1.3778805 0.063697658 2196351
1.404763 1.2116287 0.04816933 2197061
1.4093037 1.2214642 0.057919245 2197062
1.4092207 1.2226706 0.072815359 2197063
1.4868802 1.3748119 0.064728647 2197068
1.4994252 1.399725 0.067080826 2197069
1.4042697 1.2026848 0.037219334 2197777
1.3975509 1.1915503 0.059589881 2197778
1.3945427 1.1873022 0.077628613 2197779
1.4890336 1.3717262 0.065778434 2197785
1.5058458 1.404546 0.063740678 2197786
1.3987709 1.1807494 0.049290162 2198493
1.3928461 1.171134 0.07062465 2198494
1.4917842 1.3642594 0.06868875 2198501
1.5099341 1.3994102 0.065315805 2198502
1.4017708 1.1702874 0.053863488 2199209
1.3958079 1.1606708 0.075162061 2199210
1.4068505 1.16368 0.056070812 2199922
1.3987329 1.1501986 0.079698339 2199923
1.461319 1.2700686 0.070921279 2199927
1.4095473 1.1563225 0.05915644 2200639
1.4090568 1.1567739 0.074315913 2200640
1.4624946 1.2594168 0.075715706 2200644
1.4166148 1.1566068 0.057544362 2201352
1.4118501 1.1493382 0.077408902 2201353
1.4306581 1.1671431 0.049337048 2202066
1.4276037 1.1630077 0.06739419 2202067
1.4536819 1.1898482 0.033182066 2202783
1.4432918 1.1726917 0.059341908 2202784
1.4401873 1.1685052 0.077395059 2202785
1.4997002 1.2802424 0.074272312 2202789
1.4554358 1.1762339 0.055052754 2203503
1.4475315 1.163595 0.078256071 2203504
1.4763422 1.1940686 0.041869778 2204221
1.4657855 1.1768926 0.067970477 2204222
1.47271 1.1904144 0.075435877 2204223
1.5054702 1.2507578 0.071201153 2204225
1.4856923 1.1932986 0.055825479 2204937
1.4873817 1.1976086 0.068925053 2204938
1.5014253 1.2234764 0.069246873 2204939
1.511053 1.2416561 0.074327044 2204940
-3.1684425 -7.2264299 1.2760967 2205057
-3.1667519 -7.2260661 1.246328 2205058
-3.1559305 -7.2089124 1.2174081 2205059
1.510769 1.2239989 0.035665173 2205654
1.510285 1.2245415 0.051238008 2205655
1.5217526 1.2458252 0.054453745 2205656
1.530111 1.2617258 0.061022379 2205657
-3.1583631 -7.2112579 1.2467664 2205775
-3.1570919 -7.211657 1.2170326 2205776
1.5496794 1.2944945 0.025724778 2206375
1.5371805 1.2741925 0.053819649 2206376
1.5399411 1.276194 0.020450449 2207091
1.5452456 1.2868081 0.030320039 2207092
1.5358526 1.2718964 0.05520612 2207093
1.5497423 1.2758805 0.018525189 2207809
1.5537398 1.2841797 0.029785071 2207810
1.5510069 1.2808706 0.047886487 2207811
1.5630853 1.2765933 0.015309531 2208529
1.5702618 1.2902684 0.023406854 2208530
1.572925 1.2962344 0.036135405 2208531
1.5930837 1.3070955 0.010680328 2209246
1.592163 1.306959 0.027141452 2209247
1.5884771 1.3021257 0.046259586 2209248
1.6209676 1.3357961 0.0077195452 2209965
1.6118168 1.3218321 0.032387562 2209966
-3.2995164 -7.2193036 1.3585488 2210079
-3.2966077 -7.2224441 1.2683593 2210082
-3.2914071 -7.2160158 1.2386222 2210083
1.6442804 1.3568946 0.0095444042 2210683
1.5973294 1.2798711 0.070669092 2210684
-3.3189447 -7.222064 1.3577328 2210796
-3.3173745 -7.2220693 1.3276625 2210797
-3.3206842 -7.2306461 1.2972736 2210798
-3.3194761 -7.2312922 1.2671311 2210799
-3.313756 -7.2240062 1.2373531 2210800
-3.3109379 -7.221818 1.2073783 2210801
1.6494454 1.3518404 0.010726622 2211400
1.6410993 1.3394097 0.034522466 2211401
-3.3378391 -7.2331128 1.3568304 2211513
-3.3337798 -7.2287817 1.326817 2211514
-3.3341203 -7.2321463 1.2965605 2211515
-3.3314195 -7.2301903 1.2664932 2211516
-3.3271689 -7.2255173 1.2365712 2211517
-3.3213701 -7.2181273 1.2068342 2211518
1.6390265 1.3234757 0.0095906649 2212118
1.6417799 1.329469 0.022596162 2212119
1.6421882 1.3315781 0.037850991 2212120
1.6369922 1.3243961 0.058377672 2212121
-3.3588712 -7.241375 1.3861221 2212231
-3.366312 -7.2571044 1.3554665 2212232
-3.3572547 -7.2441125 1.3255816 2212233
-3.3541083 -7.2414083 1.2954426 2212234
-3.3479142 -7.2333889 1.2655544 2212235
-3.3476229 -7.2356577 1.2352564 2212236
-3.3447804 -7.2334776 1.205165 2212237
1.541646 1.1438953 0.020775268 2212827
1.5549701 1.1671512 0.022053694 2212828
1.6402828 1.3145193 0.013458416 2212833
1.6393282 1.3143781 0.030016972 2212834
1.6387959 1.3149263 0.046097413 2212835
1.6433419 1.323848 0.057309579 2212836
-3.4001961 -7.2590289 1.384509 2212946
-3.3951468 -7.2531071 1.3542894 2212947
-3.3848591 -7.240921 1.2940432 2212949
-3.3831248 -7.2407107 1.2637597 2212950
-3.3798232 -7.2377911 1.2336048 2212951
-3.372957 -7.228704 1.2038004 2212952
1.5523427 1.1397042 0.020293605 2213543
1.5551379 1.1456257 0.032417741 2213544
1.6381494 1.2864943 0.010575291 2213548
1.6414016 1.293229 0.022988893 2213549
1.641358 1.2945817 0.038573436 2213550
1.6431458 1.2989219 0.052363962 2213551
1.6444322 1.302441 0.066606663 2213552
-3.4222536 -7.254899 1.2613668 2213666
-3.4189222 -7.2519903 1.2310737 2213667
-3.4130085 -7.2446537 1.2010409 2213668
1.5536044 1.1206292 0.029349301 2214260
1.5568669 1.127256 0.040934395 2214261
1.5913053 1.1842029 0.021263085 2214262
1.6431779 1.2722224 0.016125498 2214265
1.645504 1.2774068 0.02940057 2214266
1.6487391 1.2840614 0.041801073 2214267
1.6477089 1.2838091 0.058231331 2214268
1.6485226 1.2865379 0.072867438 2214269
1.5730249 1.1305836 0.019876219 2214978
1.5758601 1.1364894 0.032013662 2214979
1.5908555 1.1618454 0.032040138 2214980
1.654328 1.2676691 0.015736833 2214983
1.6552548 1.2705771 0.030374609 2214984
1.6551991 1.2719053 0.045904834 2214985
1.6498902 1.2647972 0.066296056 2214986
1.5889882 1.1354523 0.013759481 2215693
1.5918542 1.1413729 0.025951812 2215694
1.5984658 1.1532332 0.034438569 2215695
1.6305858 1.2055722 0.018020649 2215696
1.6756144 1.2798946 0.0053686472 2215698
1.6732409 1.2775542 0.023258839 2215699
1.6708188 1.2751272 0.041091859 2215700
1.6635789 1.2650247 0.063301921 2215701
1.6033075 1.1386284 0.024595793 2216410
1.6090156 1.148978 0.034033529 2216411
1.6375376 1.1952132 0.021336114 2216412
1.7134514 1.3189913 -0.0046046269 2216415
1.6919022 1.2864738 0.031360254 2216416
1.6865555 1.2794676 0.051884249 2216417
1.6816306 1.2731128 0.071864173 2216418
1.6173503 1.1455666 0.017882563 2217130
1.6264367 1.1611429 0.024113931 2217131
1.6512861 1.2013648 0.015207871 2217132
1.7415744 1.3498449 0.0083666053 2217137
1.7178725 1.3141364 0.045864291 2217138
1.6418315 1.1704104 0.016091539 2217846
1.7177724 1.29843 0.052845534 2217853
-3.6704178 -7.3899999 1.3721601 2217963
-3.6698029 -7.3918829 1.3406339 2217964
-3.6644261 -7.3859715 1.3093563 2217965
-3.6600227 -7.381649 1.2780768 2217966
-3.6539886 -7.3746495 1.2469591 2217967
1.7712834 1.3653147 -0.0050310143 2218568
1.7215847 1.2897761 0.05585039 2218569
-3.6929333 -7.3961167 1.3710115 2218679
-3.6938818 -7.400557 1.3393365 2218680
-3.6900496 -7.397213 1.3078851 2218681
-3.6861475 -7.3937511 1.2764726 2218682
-3.6785183 -7.3842096 1.2453656 2218683
-3.682832 -7.3941431 1.2133853 2218684
1.6819236 1.2075729 0.0051717353 2219280
1.6955221 1.2298936 0.0077613369 2219281
1.709129 1.2522466 0.010550207 2219282
1.7149624 1.2626536 0.020749055 2219283
1.7266223 1.282039 0.02566193 2219284
1.7294967 1.2879021 0.038715124 2219285
1.7137606 1.2650714 0.06847661 2219286
-3.7133296 -7.3987679 1.3700705 2219396
-3.7085032 -7.3938489 1.3386141 2219397
-3.7067559 -7.3939166 1.3070371 2219398
-3.7007396 -7.3870606 1.2757343 2219399
-3.6993744 -7.3877449 1.2441628 2219400
-3.6947918 -7.3832073 1.2128426 2219401
1.6862084 1.2018181 0.0068675503 2219997
1.6930443 1.2136884 0.015864657 2219998
1.6993767 1.224795 0.025406849 2219999
1.7027625 1.231395 0.03773525 2220000
1.7075863 1.2401996 0.048759673 2220001
1.710427 1.2459669 0.061614275 2220002
-3.7399087 -7.3850284 1.3053771 2220115
-3.7333179 -7.3773532 1.2740669 2220116
-3.727715 -7.3712578 1.2427632 2220117
-3.7336557 -7.3837075 1.2105874 2220118
1.6837052 1.1716005 0.0055783703 2220714
1.6857035 1.1760309 0.019049611 2220715
1.6891376 1.182633 0.031159645 2220716
1.6964694 1.1951406 0.039671566 2220717
1.7013285 1.203908 0.050533473 2220718
1.7061641 1.2126433 0.06145449 2220719
1.7090023 1.2183509 0.074204788 2220720
-3.7701447 -7.3729167 1.2400693 2220835
-3.7644227 -7.3667312 1.2087297 2220836
1.6940179 1.1609476 0.0081574777 2221430
1.6950425 1.1638855 0.022537788 2221431
1.698004 1.1697205 0.035084162 2221432
1.6979676 1.1710635 0.050382935 2221433
1.7008629 1.1767967 0.062962294 2221434
1.7037276 1.182484 0.075569302 2221435
1.6964309 1.1437386 0.015761264 2222149
1.6989355 1.1488514 0.028699555 2222150
1.6994208 1.1509658 0.043489203 2222151
1.7018571 1.1559736 0.056453086 2222152
1.7032639 1.1594507 0.070336953 2222153
1.6964201 1.1337954 0.0044630282 2222868
1.6959839 1.13455 0.020161342 2222869
1.6964982 1.1367035 0.034911245 2222870
1.6984668 1.1410038 0.048277624 2222871
1.6994033 1.143775 0.062564351 2222872
1.6998024 1.1457469 0.077297464 2222873
1.6911079 1.1172335 0.013603196 2223583
1.6906527 1.1179543 0.029228287 2223584
1.6906524 1.1193389 0.044366341 2223585
1.6936063 1.1250718 0.056740467 2223586
1.6955293 1.1292847 0.070049934 2223587
1.6862569 1.1020329 0.0061817444 2224301
1.6878182 1.1057119 0.01989013 2224302
1.6908387 1.1115302 0.032208338 2224303
1.6928302 1.1158372 0.045477521 2224304
1.6917858 1.1156816 0.06150461 2224305
1.6932024 1.1191374 0.075229228 2224306
-3.8773754 -7.3963256 1.3935702 2224419
1.683612 1.0922076 0.011548242 2225019
1.6866605 1.098052 0.023807401 2225020
1.6896789 1.1038523 0.036095023 2225021
1.6911663 1.1074097 0.049794924 2225022
1.6901116 1.1072392 0.065787077 2225023
1.6910205 1.1099411 0.079930462 2225024
-3.891845 -7.4060326 1.3928205 2225137
-3.881495 -7.392931 1.3611203 2225138
-3.8873322 -7.4049129 1.3287823 2225139
-3.881171 -7.3982959 1.2969941 2225140
-3.8760214 -7.3932414 1.2652104 2225141
-3.8724222 -7.3905902 1.2333665 2225142
1.683408 1.0871092 0.014066693 2225739
1.68446 1.0900269 0.02818295 2225740
1.6864741 1.0943464 0.041366704 2225741
1.6894563 1.1000794 0.053640392 2225742
1.6868874 1.0976933 0.070973776 2225743
-3.9005756 -7.4194441 1.3925117 2225857
-3.8918483 -7.4088631 1.3606771 2225858
-3.8917203 -7.4116049 1.3285424 2225859
-3.8893487 -7.4108686 1.2965066 2225860
-3.8874433 -7.4108543 1.2644492 2225861
-3.8816743 -7.4048424 1.2326703 2225862
-3.8747516 -7.3970327 1.2010447 2225863
1.6753656 1.0739769 0.0066264588 2226455
1.6744497 1.0740201 0.022582488 2226456
1.6759834 1.0776333 0.036160704 2226457
1.6789815 1.083383 0.048348553 2226458
1.6814487 1.0883565 0.061025608 2226459
1.6758534 1.081537 0.081041649 2226460
-3.9025414 -7.4217858 1.3922111 2226574
-3.9057395 -7.4296842 1.3598864 2226575
-3.9023547 -7.4273853 1.3277991 2226576
-3.8940201 -7.4174075 1.296015 2226577
-3.8921125 -7.4173927 1.2639228 2226578
-3.8868821 -7.4122195 1.2320701 2226579
-3.8880692 -7.4170089 1.1997535 2226580
1.6699449 1.065973 0.011905141 2227171
1.6705127 1.0681759 0.026400585 2227172
1.6715399 1.0710452 0.040417064 2227173
1.6775303 1.081161 0.049779732 2227174
1.6814977 1.0883254 0.061061561 2227175
1.676906 1.0829736 0.080162503 2227176
-3.9271159 -7.4213319 1.3909215 2227290
-3.9248803 -7.4208374 1.3587577 2227291
-3.9198472 -7.4160323 1.3267367 2227292
-3.9229007 -7.423687 1.2943134 2227293
-3.922611 -7.4261932 1.2620254 2227294
-3.9168077 -7.4201956 1.2301087 2227295
-3.9158211 -7.4216266 1.1978662 2227296
1.6713266 1.0535583 0.01755821 2227890
1.672887 1.0571901 0.031066179 2227891
1.675414 1.0622215 0.043641899 2227892
1.6769046 1.0657477 0.057167955 2227893
1.6738307 1.0626419 0.074848898 2227894
-3.9512866 -7.4087205 1.2926619 2228012
-3.950994 -7.4112267 1.260361 2228013
-3.9418693 -7.400238 1.2286704 2228014
-3.9386899 -7.3983293 1.1966165 2228015
1.6776429 1.0394363 0.0070740781 2228606
1.6782395 1.0416634 0.021510651 2228607
1.6787963 1.0438291 0.035937354 2228608
1.6808268 1.048108 0.048948091 2228609
1.6802956 1.0487021 0.064295344 2228610
1.6842796 1.0557859 0.075467944 2228611
1.680042 1.0209458 0.01534269 2229324
1.6821448 1.0252986 0.028289801 2229325
1.6826925 1.0274384 0.0426667 2229326
1.6842161 1.0309625 0.056096651 2229327
1.6877397 1.0373315 0.067672722 2229328
1.6907247 1.0429342 0.079745002 2229329
1.6815529 1.002539 0.008289272 2230040
1.6847073 1.0083439 0.020222031 2230041
1.6878316 1.0141066 0.032183439 2230042
1.6883757 1.0162314 0.046533797 2230043
1.6868359 1.0154117 0.062747099 2230044
1.6898555 1.0210208 0.074738778 2230045
1.687567 0.99216682 0.011752537 2230758
1.6907336 0.99794853 0.023663605 2230759
1.6902865 0.99868119 0.038933713 2230760
1.6938983 1.0050824 0.050402652 2230761
1.6918291 1.0035371 0.067056462 2230762
1.6933137 1.0069577 0.08041127 2230763
1.6709497 0.99596274 0.014351173 2231474
1.6730698 1.0003165 0.02719355 2231475
1.6751558 1.0046203 0.040049333 2231476
1.6751729 1.0059946 0.054806784 2231477
1.6746386 1.0065827 0.070014313 2231478
1.676614 1.010721 0.082872942 2231479
1.631507 1.0062221 0.019730922 2232188
1.6295977 1.0047917 0.036357492 2232189
1.6326132 1.0105302 0.048169438 2232190
1.6375927 1.0191329 0.058118362 2232191
1.6380569 1.0211504 0.072346374 2232192
1.6414839 1.0274894 0.083772823 2232193
-3.8815212 -7.5751638 1.395082 2232309
1.5954443 1.0219359 0.021214239 2232905
1.5993983 1.0292237 0.03204364 2232906
1.5989466 1.0298914 0.047211692 2232907
1.5984528 1.0304899 0.062354282 2232908
1.601338 1.0361669 0.074183874 2232909
-3.9931188 -7.5132656 1.3888303 2233026
-3.9914005 -7.5136166 1.3561525 2233027
-3.9901485 -7.5146856 1.3234515 2233028
-3.9893632 -7.5164728 1.290715 2233029
-3.9781573 -7.5022168 1.258629 2233030
-3.9810278 -7.5096321 1.2256749 2233031
1.6291981 0.98525083 0.015200106 2233618
1.6302918 0.98817861 0.028877722 2233619
1.628355 0.98672128 0.04543506 2233620
1.6313682 0.9924165 0.057178933 2233621
1.6343522 0.99806976 0.068950705 2233622
1.6347979 1.0000461 0.083094276 2233623
-4.1121273 -7.4461293 1.3819574 2233740
-4.1103597 -7.4465127 1.3492389 2233741
-4.1135516 -7.4542303 1.3162795 2233742
-4.1116219 -7.4543767 1.2835289 2233743
-4.1017795 -7.4428115 1.2512842 2233744
-4.0985751 -7.4410644 1.2186846 2233745
1.6685811 0.95273805 0.020676469 2234337
1.6707228 0.95705515 0.033366267 2234338
1.672318 0.96061134 0.046548553 2234339
1.6743907 0.96482873 0.059260242 2234340
1.6738555 0.9654178 0.07434383 2234341
1.6737924 0.96665752 0.088932976 2234342
-4.1947517 -7.4112177 1.377027 2234459
-4.1861124 -7.4017649 1.3445122 2234460
-4.1853719 -7.4036942 1.3117173 2234461
-4.189672 -7.412899 1.2786202 2234462
-4.1876254 -7.41295 1.2458326 2234463
-4.1854968 -7.4128833 1.2130502 2234464
1.6892027 0.92426455 0.013619606 2235050
1.68933 0.92578024 0.028214319 2235051
1.6909758 0.92934537 0.041343462 2235052
1.6941496 0.9349767 0.05304097 2235053
1.6952029 0.93773538 0.066666976 2235054
1.6977884 0.94256735 0.078876048 2235055
-4.2134666 -7.4084845 1.3100257 2235175
-4.2120633 -7.4094782 1.2771626 2235176
-4.2042933 -7.4013348 1.2446977 2235177
-4.2004442 -7.3988142 1.2120386 2235178
1.6922435 0.91577137 0.016962593 2235766
1.6954939 0.92148161 0.028615838 2235767
1.6919211 0.91801339 0.046571843 2235768
1.691432 0.9186846 0.061583728 2235769
1.6945703 0.92423528 0.073245011 2235770
1.697678 0.92974484 0.084933773 2235771
1.6899843 0.89867944 0.010672788 2236485
1.6911774 0.90161163 0.024220841 2236486
1.6918081 0.90378886 0.038253404 2236487
1.6950206 0.90941405 0.04986345 2236488
1.6982028 0.91499877 0.061501503 2236489
1.7008278 0.91983753 0.073642172 2236490
1.6986712 0.91826969 0.090041861 2236491
1.6894035 0.88525164 0.017492568 2237205
1.6926852 0.89094132 0.029031696 2237206
1.6954112 0.89589274 0.041085325 2237207
1.6917851 0.89239985 0.058948096 2237208
1.6960162 0.89934623 0.069561139 2237209
1.6970489 0.9020378 0.083065435 2237210
1.687662 0.86877066 0.010829316 2237923
1.6920285 0.87586093 0.021318898 2237924
1.6905767 0.87527561 0.037241012 2237925
1.6943516 0.88158339 0.048262089 2237926
1.6975695 0.88715637 0.059801217 2237927
1.6986377 0.88988745 0.073281966 2237928
1.7001979 0.89326578 0.08628498 2237929
1.6920722 0.86347544 0.012176814 2238641
1.6943424 0.86778444 0.024634117 2238642
1.6944642 0.86927205 0.039063882 2238643
1.69719 0.8741743 0.05104645 2238644
1.7020053 0.88182157 0.06112064 2238645
1.6977595 0.87755638 0.079377294 2238646
1.6998453 0.8816101 0.091860235 2238647
1.6919637 0.85609019 0.015889095 2239358
1.6905318 0.85554677 0.031774696 2239359
1.6954049 0.86324215 0.041743971 2239360
1.6944169 0.86326915 0.057109233 2239361
1.6955081 0.86601228 0.070513032 2239362
1.6965604 0.86870098 0.083913766 2239363
1.6997092 0.87413514 0.095413633 2239364
1.6903188 0.84658867 0.021099927 2240077
1.6931102 0.85154831 0.033000335 2240078
1.6958691 0.85646462 0.044921342 2240079
1.6985954 0.86133778 0.056862697 2240080
1.6986245 0.86269003 0.071234457 2240081
1.7012801 0.86746699 0.083197035 2240082
-4.3501115 -7.3745351 1.3683848 2240202
-4.3441458 -7.369308 1.335502 2240203
-4.3445401 -7.3728762 1.3023679 2240204
-4.3425059 -7.373086 1.2693354 2240205
-4.3368783 -7.3683181 1.2365321 2240206
1.6905874 0.8328954 0.01263766 2240794
1.6923548 0.83650589 0.025489168 2240795
1.6935533 0.83937734 0.038839709 2240796
1.6968442 0.84495562 0.050230239 2240797
1.6974347 0.8470338 0.064077079 2240798
1.700124 0.85182989 0.075986147 2240799
1.7001003 0.853104 0.090305366 2240800
-4.3725629 -7.3631458 1.3670132 2240920
-4.3824568 -7.3797598 1.3334525 2240921
-4.3687286 -7.3639302 1.3008764 2240922
-4.3772664 -7.378696 1.2672157 2240923
-4.3663173 -7.366672 1.2346436 2240924
-4.3646898 -7.3674641 1.2015363 2240925
-4.3606277 -7.3649054 1.1686116 2240926
1.6945914 0.82355446 0.016114732 2241515
1.6968932 0.82783264 0.028447203 2241516
1.6954207 0.82725763 0.044244759 2241517
1.6987154 0.83280647 0.055598289 2241518
1.6992979 0.8348645 0.069407307 2241519
1.6993015 0.83617264 0.083687484 2241520
1.7008772 0.83950162 0.096515737 2241521
-4.402061 -7.3663597 1.3655685 2241641
-4.3919039 -7.3555264 1.332757 2241642
-4.3987927 -7.3679647 1.2992295 2241643
-4.3914227 -7.36093 1.2663765 2241644
-4.3922315 -7.3650699 1.2330785 2241645
-4.3935409 -7.3698993 1.1997004 2241646
-4.3912258 -7.3697724 1.1665547 2241647
1.6981792 0.8155067 0.019019958 2242233
1.695668 0.81361979 0.035805192 2242234
1.6968557 0.81644869 0.049084328 2242235
1.7001536 0.8219716 0.060404547 2242236
1.7001899 0.82332265 0.074664876 2242237
1.705039 0.83082837 0.084572777 2242238
-4.4148154 -7.3760324 1.298418 2242361
-4.4157052 -7.3802886 1.265028 2242362
-4.4105988 -7.376369 1.2319771 2242363
-4.4059997 -7.3731384 1.1989331 2242364
-4.4001365 -7.3681788 1.166023 2242365
1.6912391 0.80063879 0.01342181 2242950
1.6908939 0.80151665 0.028176151 2242951
1.6905025 0.8023296 0.042906094 2242952
1.6948988 0.80923849 0.053174697 2242953
1.6965781 0.812684 0.065932237 2242954
1.6971418 0.81470323 0.07966546 2242955
1.7003659 0.82011539 0.090980254 2242956
-4.4044766 -7.3600178 1.1657498 2243083
1.6914728 0.79617757 0.015599032 2243668
1.6927295 0.79908895 0.028836967 2243669
1.6944834 0.80262864 0.041576464 2243670
1.6945865 0.80406666 0.055799995 2243671
1.6946458 0.8054437 0.07000608 2243672
1.6973621 0.81019819 0.081767604 2243673
1.6995043 0.81422061 0.094030559 2243674
1.6951571 0.78270715 0.02127357 2244387
1.6985642 0.78830558 0.032473531 2244388
1.6992419 0.79046661 0.046183906 2244389
1.6993369 0.79188889 0.060377367 2244390
1.7015558 0.79598439 0.072597682 2244391
1.7021108 0.79797828 0.08628542 2244392
1.7042565 0.80197656 0.098518781 2244393
1.7038417 0.76756537 0.026187077 2245106
1.7050952 0.77042931 0.03935856 2245107
1.703588 0.76985782 0.05500868 2245108
1.7020296 0.76921481 0.070618711 2245109
1.706978 0.77666306 0.080325127 2245110
1.7091643 0.78067374 0.092505813 2245111
1.7103395 0.75011802 0.017924733 2245821
1.7094495 0.75033367 0.033081952 2245822
1.7123404 0.75518233 0.044709835 2245823
1.7124563 0.75662255 0.058837682 2245824
1.7136267 0.75935328 0.071963824 2245825
1.7158586 0.76338559 0.084110722 2245826
1.7163999 0.76533616 0.097722992 2245827
1.7066442 0.73881346 0.024729043 2246539
1.7090199 0.7430191 0.036817271 2246540
1.710812 0.74650919 0.049418364 2246541
1.7120168 0.74927807 0.062520482 2246542
1.7164854 0.75604057 0.072668158 2246543
1.7165139 0.75736338 0.086764164 2246544
1.7176033 0.75998217 0.099873133 2246545
-4.5954719 -7.351099 1.3544964 2246667
-4.5983682 -7.3579531 1.3206836 2246668
-4.5938797 -7.3551669 1.2871672 2246669
-4.5850534 -7.3467083 1.2539318 2246670
1.7071203 0.73127919 0.013402792 2247255
1.7057054 0.73086202 0.029023433 2247256
1.7097217 0.7370525 0.039572138 2247257
1.7104129 0.73919106 0.053153586 2247258
1.7110614 0.74127316 0.066725314 2247259
1.7111162 0.74262625 0.080778547 2247260
1.7149967 0.7486465 0.09139704 2247261
-4.6035008 -7.3839822 1.3546183 2247384
-4.5997114 -7.382102 1.3209541 2247385
-4.5976524 -7.3824883 1.2872295 2247386
-4.5803566 -7.3628879 1.2543703 2247387
-4.5841827 -7.3709879 1.2203763 2247388
-4.5879135 -7.3789706 1.1863008 2247389
1.6969156 0.72612107 0.019273655 2247969
1.6987649 0.7296806 0.031806815 2247970
1.7005767 0.73319167 0.044345707 2247971
1.6985133 0.73195899 0.060387321 2247972
1.7013407 0.73670512 0.071918957 2247973
1.6991804 0.73534036 0.087898813 2247974
1.7008284 0.73863524 0.10041248 2247975
-4.575552 -7.4102893 1.3566446 2248098
-4.5735931 -7.4107842 1.3228849 2248099
-4.5715456 -7.4111609 1.2891289 2248100
-4.5682054 -7.4098248 1.2554457 2248101
-4.5707941 -7.4163489 1.2213998 2248102
-4.5636668 -7.4099903 1.1879758 2248103
1.6844269 0.73131138 0.020600766 2248686
1.6830053 0.73085463 0.036162239 2248687
1.6842501 0.7336843 0.049166307 2248688
1.6827319 0.73309439 0.064667553 2248689
1.6838919 0.73581016 0.077648334 2248690
1.6893883 0.7438904 0.086688191 2248691
1.6899306 0.74583733 0.10018179 2248692
-4.5479164 -7.4427767 1.2911617 2248817
-4.5370913 -7.4375682 1.1900742 2248820
1.665503 0.72827852 0.028045652 2249400
1.6656885 0.72980189 0.042024877 2249401
1.6701499 0.73665851 0.051956296 2249402
1.670257 0.73807698 0.065931551 2249403
1.6719471 0.7414692 0.078400314 2249404
1.673057 0.74413311 0.091366358 2249405
1.6763061 0.74947107 0.1023742 2249406
1.6820393 0.70861369 0.017962931 2250117
1.6817212 0.70952004 0.032451101 2250118
1.6835388 0.71303207 0.044886515 2250119
1.6858655 0.7171647 0.056824036 2250120
1.6815827 0.71320122 0.074770354 2250121
1.6816298 0.71453148 0.088671342 2250122
1.6849338 0.71985024 0.099601813 2250123
1.6895941 0.67608058 0.017319113 2250832
1.6925915 0.68095547 0.028656213 2250833
1.6988645 0.6897496 0.036951814 2250834
1.7006985 0.69323206 0.04936618 2250835
1.7013869 0.69533908 0.062792175 2250836
1.703143 0.69872206 0.07520999 2250837
1.7031931 0.70005524 0.089118615 2250838
1.7048705 0.70333725 0.1015345 2250839
1.7018433 0.66211325 0.020424018 2251551
1.7031976 0.66499686 0.033289477 2251552
1.706737 0.67045325 0.044113178 2251553
1.7041123 0.66863728 0.060534652 2251554
1.7075771 0.67400074 0.071372941 2251555
1.7098916 0.6780051 0.083236463 2251556
1.7127316 0.68262923 0.094617151 2251557
1.7034845 0.65098339 0.025563171 2252271
1.7026037 0.65123659 0.040450118 2252272
1.7039073 0.6540404 0.053265829 2252273
1.7074099 0.65941721 0.064054973 2252274
1.7097597 0.66344243 0.075876698 2252275
1.713761 0.66940325 0.086214907 2252276
1.7154797 0.6726855 0.098567382 2252277
1.7022859 0.63661563 0.033292763 2252987
1.7025034 0.6381458 0.047100261 2252988
1.7043586 0.64157486 0.059361838 2252989
1.706738 0.64561123 0.07112278 2252990
1.7096452 0.65026021 0.082394116 2252991
1.7142133 0.65684366 0.092189848 2252992
1.7159262 0.6601001 0.10450131 2252993
-4.8386641 -7.368371 1.3410447 2253118
-4.8453612 -7.3798456 1.3063493 2253119
-4.8250489 -7.3576908 1.2728883 2253120
-4.8111424 -7.3497553 1.1706686 2253123
1.6967636 0.62173826 0.028072728 2253702
1.7054042 0.63300824 0.034080643 2253703
1.7095482 0.6390816 0.044290859 2253704
1.7035434 0.63340092 0.063710079 2253705
1.7087359 0.64068341 0.072911993 2253706
1.7116461 0.64532155 0.084172577 2253707
1.7105619 0.64532286 0.098941229 2253708
-4.8532257 -7.3656273 1.3399763 2253834
-4.8467612 -7.3607464 1.3058205 2253835
-4.853374 -7.3720927 1.2710668 2253836
-4.8448429 -7.3646421 1.2370579 2253837
-4.8387294 -7.360188 1.2029806 2253838
-4.8437963 -7.3696284 1.1681583 2253839
1.6983472 0.6171819 0.029888114 2254422
1.7002705 0.62067264 0.042090554 2254423
1.7038423 0.62606233 0.052758843 2254424
1.7068201 0.63076639 0.063964613 2254425
1.7046829 0.6295616 0.079742663 2254426
1.7064517 0.63286251 0.091958821 2254427
1.7087497 0.63677299 0.10368147 2254428
-4.8723121 -7.3655462 1.3387518 2254554
-4.8689728 -7.364563 1.3044083 2254555
-4.8586268 -7.3549142 1.2704346 2254556
-4.8563604 -7.3552508 1.2361106 2254557
-4.865931 -7.3702388 1.2010247 2254558
-4.8578219 -7.3633475 1.167032 2254559
1.7010458 0.61287415 0.031219613 2255141
1.6962242 0.6086114 0.049617629 2255142
1.7014773 0.61590993 0.058694765 2255143
1.7027541 0.61863989 0.07138823 2255144
1.7056884 0.62327296 0.082562417 2255145
1.7063209 0.62525541 0.095763884 2255146
1.707479 0.62783891 0.10845681 2255147
-4.8878217 -7.3592753 1.2340541 2255276
-4.8867064 -7.3610539 1.1995548 2255277
-4.8842354 -7.3611646 1.1651341 2255278
1.6980957 0.59876835 0.039431609 2255858
1.6983161 0.60028601 0.053121753 2255859
1.6990563 0.60239208 0.066282101 2255860
1.70202 0.60703534 0.07739567 2255861
1.704383 0.61099041 0.089034714 2255862
1.701588 0.60904056 0.10520202 2255863
1.6976237 0.58647019 0.031375121 2256574
1.6978779 0.58802563 0.04504469 2256575
1.6941239 0.58502686 0.062314048 2256576
1.6959797 0.58838761 0.074385427 2256577
1.6966603 0.59041017 0.087480187 2256578
1.7012868 0.59691566 0.097026952 2256579
1.7030323 0.60014451 0.10912403 2256580
1.6936297 0.5688085 0.041834436 2257290
1.6966964 0.57351989 0.052832764 2257291
1.698593 0.57691216 0.064884365 2257292
1.6993122 0.57897431 0.077966884 2257293
1.7005593 0.58162755 0.090530388 2257294
1.7034824 0.58616966 0.10157555 2257295
1.6941578 0.5551033 0.048682868 2258004
1.6960835 0.55850708 0.06067761 2258005
1.6996843 0.56378049 0.07112921 2258006
1.7009652 0.56645912 0.0836583 2258007
1.7027791 0.56973082 0.095676243 2258008
1.7022554 0.57038176 0.1097187 2258009
1.6966729 0.54347265 0.039315239 2258718
1.6997818 0.54817218 0.050243031 2258719
1.7017132 0.55156559 0.062231045 2258720
1.7007388 0.55173224 0.07680469 2258721
1.6985639 0.5505591 0.092370816 2258722
1.7032455 0.55699468 0.10178645 2258723
1.6985976 0.53735381 0.04174662 2259435
1.69942 0.53951401 0.054753821 2259436
1.6973301 0.53845596 0.070350066 2259437
1.7015091 0.54431152 0.08022438 2259438
1.7050837 0.54950017 0.090645708 2259439
1.709783 0.55593246 0.10007722 2259440
-5.0864701 -7.3645854 1.3258264 2259569
-5.0759187 -7.3552809 1.2912109 2259570
-5.0717196 -7.3534956 1.256384 2259571
-5.059814 -7.3457556 1.1870325 2259573
1.6959319 0.52621371 0.048393056 2260154
1.6978886 0.52960902 0.06030947 2260155
1.7003824 0.53359145 0.071711808 2260156
1.700534 0.534998 0.08519017 2260157
1.7041067 0.54016185 0.095578521 2260158
1.7076489 0.5452922 0.10599414 2260159
-5.1271605 -7.3417392 1.3228506 2260288
-5.1158862 -7.3317342 1.2882304 2260289
-5.1077647 -7.3254123 1.2535703 2260290
-5.1235452 -7.3471026 1.2176028 2260291
-5.1152248 -7.340548 1.1829493 2260292
1.7014811 0.51145071 0.053969514 2260870
1.7051727 0.5166977 0.064284757 2260871
1.7099917 0.52316856 0.073589236 2260872
1.7142049 0.528983 0.08345174 2260873
1.7108277 0.5265488 0.10000195 2260874
1.7114698 0.5284754 0.11293329 2260875
-5.1726923 -7.3010964 1.3193213 2261004
-5.1744161 -7.3062811 1.2841266 2261005
-5.1727633 -7.3075752 1.2490525 2261006
-5.1755896 -7.3140397 1.2137088 2261007
-5.1783109 -7.3203907 1.1783012 2261008
1.7104259 0.49361265 0.059815314 2261589
1.7129722 0.49756998 0.071144909 2261590
1.7160668 0.50211132 0.081968352 2261591
1.7208842 0.50849348 0.091266476 2261592
1.722742 0.5117113 0.1031635 2261593
1.724561 0.51488495 0.11506502 2261594
1.7203375 0.47927737 0.063467965 2262306
1.7199599 0.48011675 0.077391498 2262307
1.7236546 0.48523787 0.087661244 2262308
1.7273184 0.49032629 0.097958177 2262309
1.727402 0.4916397 0.11134834 2262310
1.7050498 0.46952733 0.059803464 2263020
1.7134675 0.47965053 0.065787233 2263021
1.7171867 0.48481542 0.076036252 2263022
1.7226374 0.4918116 0.084757119 2263023
1.7204112 0.49068573 0.10022067 2263024
1.7198981 0.49136519 0.1141032 2263025
1.701628 0.47366479 0.058961514 2263731
1.7030259 0.47638187 0.071260765 2263732
1.7049673 0.47967219 0.083035469 2263733
1.7086281 0.48478654 0.093259335 2263734
1.712258 0.48986828 0.10351039 2263735
1.71468 0.49366477 0.11481075 2263736
1.6933689 0.46110511 0.05424596 2264447
1.696538 0.46569124 0.064906128 2264448
1.7002579 0.47085983 0.075060695 2264449
1.707458 0.47971758 0.082108647 2264450
1.7093652 0.48296615 0.093896203 2264451
1.7071189 0.48180306 0.10929294 2264452
1.6982071 0.4546133 0.055812202 2265163
1.7008009 0.45856979 0.066995956 2265164
1.7021866 0.46125373 0.079244062 2265165
1.7047057 0.46512726 0.090445928 2265166
1.7030679 0.46461996 0.10528883 2265167
1.708456 0.47151145 0.11391553 2265168
-5.3192363 -7.3441205 1.3104161 2265299
-5.3110089 -7.3380666 1.2751077 2265300
1.6972512 0.44190851 0.062697232 2265883
1.7015991 0.44767156 0.072249323 2265884
1.7059193 0.45340669 0.081836313 2265885
1.7096219 0.45849708 0.0919801 2265886
1.7132937 0.46355525 0.10215103 2265887
1.7121965 0.46362078 0.11646514 2265888
-5.3456049 -7.3528094 1.3090317 2266019
-5.344656 -7.3549929 1.273289 2266020
-5.3396215 -7.3525753 1.2377402 2266021
-5.3285184 -7.3433132 1.2025809 2266022
1.6979339 0.43672442 0.065069564 2266598
1.6999327 0.44002619 0.076724596 2266599
1.7018926 0.4432849 0.088384993 2266600
1.7055861 0.44834667 0.098484732 2266601
1.7092488 0.45337644 0.10861171 2266602
1.7152545 0.46085054 0.1167077 2266603
-5.4241209 -7.4207397 1.305619 2266734
-5.3639631 -7.3565135 1.2721152 2266735
-5.3642325 -7.360076 1.2362298 2266736
-5.3557596 -7.3538189 1.2008207 2266737
1.6967629 0.42982674 0.069034994 2267317
1.6999338 0.43433338 0.079606272 2267318
1.7036619 0.43941724 0.089671962 2267319
1.7008494 0.437711 0.1055045 2267320
1.7033151 0.44147858 0.11661962 2267321
-5.5016484 -7.4928956 1.1921273 2267456
1.6951635 0.42031252 0.060360618 2268033
1.6977817 0.42423511 0.071433626 2268034
1.6980022 0.42568061 0.08463607 2268035
1.7017263 0.43074039 0.094669014 2268036
1.7054198 0.4357686 0.10472915 2268037
1.7090826 0.44076511 0.11481616 2268038
1.698995 0.41682619 0.060666576 2268751
1.6980771 0.41710523 0.074936107 2268752
1.7018408 0.42218852 0.084942497 2268753
1.7055738 0.42724034 0.094976082 2268754
1.7080871 0.43103683 0.10608008 2268755
1.7123519 0.43663558 0.11564245 2268756
1.7005211 0.4109152 0.063132808 2269467
1.7019628 0.41360885 0.075257227 2269468
1.7027693 0.41564912 0.087908715 2269469
1.7035315 0.41763964 0.10055048 2269470
1.7060373 0.42141199 0.11161786 2269471
1.6995903 0.4025937 0.067728989 2270182
1.7010241 0.40526921 0.079824366 2270183
1.695875 0.40123674 0.097734101 2270184
1.6989982 0.40562212 0.10820926 2270185
1.7026857 0.41058218 0.11818238 2270186
1.6980898 0.39368156 0.07286942 2270898
1.7012985 0.39814442 0.083334967 2270899
1.7032818 0.40136412 0.09487763 2270900
1.7016411 0.40090436 0.10957505 2270901
1.7035382 0.40402859 0.12110534 2270902
-6.4024549 -8.3122768 1.4320675 2271031
-6.3961816 -8.3092442 1.3902814 2271032
-6.3951917 -8.3119736 1.3484071 2271033
-6.3913765 -8.3116198 1.3066076 2271034
-6.3793387 -8.3022804 1.2651485 2271035
1.6944965 0.38031873 0.06709443 2271614
1.6941665 0.38119873 0.080726415 2271615
1.696768 0.38502675 0.09167327 2271616
1.698138 0.38761094 0.10368956 2271617
1.7000653 0.39075407 0.1151785 2271618
-6.4173203 -8.2888651 1.3465027 2271750
-6.424335 -8.3002844 1.3043542 2271751
-6.4136047 -8.2924576 1.2627841 2271752
1.6996747 0.37439713 0.068116516 2272331
1.695163 0.37109703 0.085494697 2272332
1.6965656 0.37370351 0.097476944 2272333
1.7003261 0.37866783 0.10734332 2272334
1.7040559 0.3836014 0.1172366 2272335
2.4935548 1.2330393 0.067761846 2272370
1.6940781 0.35778606 0.078854471 2273050
1.6979117 0.36279631 0.088664122 2273051
1.7047182 0.3707611 0.095841788 2273052
1.7036816 0.37092939 0.10994951 2273053
1.7068158 0.37524214 0.1203538 2273054
2.5017359 1.2230197 0.051604658 2273088
2.5099249 1.2329299 0.063844875 2273089
1.699097 0.35191563 0.079864524 2273764
1.7005376 0.35453898 0.091812998 2273765
1.7043471 0.35949725 0.1016326 2273766
1.7057095 0.36203802 0.11359113 2273767
2.510849 1.215735 0.051909346 2273802
2.5171258 1.2236532 0.065322906 2273803
1.6992809 0.34134477 0.085192434 2274482
1.6976963 0.34099081 0.099784262 2274483
1.6990798 0.34353855 0.11167936 2274484
1.7028463 0.34842095 0.12146071 2274485
2.5309649 1.2195331 0.045558773 2274520
2.5366318 1.2268026 0.059435122 2274521
1.6995173 0.33133009 0.076393627 2275200
1.6991779 0.33220044 0.08990965 2275201
1.6981823 0.33242548 0.10393658 2275202
1.6995597 0.33495623 0.11580651 2275203
2.5413868 1.2160305 0.044216484 2275239
2.5503328 1.226549 0.056171235 2275240
1.6974286 0.32753128 0.079186566 2275916
1.6964774 0.32780492 0.09322308 2275917
1.699106 0.33155417 0.10401787 2275918
1.6998774 0.33349332 0.11641909 2275919
2.5403147 1.2106431 0.028515393 2275954
2.5519102 1.2237941 0.038847964 2275955
2.5556605 1.2291178 0.053968038 2275956
1.6941143 0.32257217 0.083061196 2276630
1.6943614 0.32400721 0.095994703 2276631
1.6915311 0.32244614 0.11158632 2276632
1.6941048 0.32613105 0.12234205 2276633
2.5521049 1.2196921 0.022291537 2276668
2.5624206 1.2315606 0.033473864 2276669
2.5687957 1.2395053 0.047095995 2276670
2.5725193 1.2448053 0.062316418 2276671
-6.6474123 -8.3241806 1.4198288 2276765
-6.6458001 -8.3263617 1.3771842 2276766
-6.6495647 -8.3342075 1.3343818 2276767
-6.6421876 -8.3303175 1.2918777 2276768
1.6920093 0.31878567 0.085845575 2277348
1.6910398 0.3190383 0.099838004 2277349
1.691835 0.320997 0.11219392 2277350
1.6938008 0.32408839 0.12347735 2277351
2.5515857 1.2148986 0.0061065513 2277385
2.5665007 1.2313323 0.014456698 2277386
2.5703263 1.2367331 0.0296448 2277387
2.5727997 1.240786 0.045638405 2277388
2.571954 1.2415266 0.063566722 2277389
-6.6604581 -8.3376713 1.3338417 2277485
-6.6634011 -8.3446598 1.2909441 2277486
-6.6517587 -8.3362894 1.2485631 2277487
1.6817896 0.30592871 0.082818724 2278065
1.685673 0.3108789 0.092431314 2278066
1.6889212 0.31521365 0.10260951 2278067
1.6903164 0.31775087 0.11441219 2278068
1.6922778 0.32083377 0.12568106 2278069
2.5744479 1.2348371 -0.0069876499 2278103
2.580292 1.2422472 0.0070463275 2278104
2.5769675 1.2405367 0.026628375 2278105
2.5781443 1.2432991 0.043431256 2278106
2.5779581 1.2447002 0.060999073 2278107
1.6788397 0.30059707 0.086743116 2278785
1.6815078 0.30436355 0.097414695 2278786
1.6865623 0.31043661 0.10594455 2278787
1.6849147 0.31002358 0.12039959 2278788
2.5770922 1.2335321 -0.0072432607 2278823
2.5809877 1.2389991 0.0079844929 2278824
2.5848358 1.2444191 0.023240944 2278825
2.5892901 1.2504419 0.038137428 2278826
2.5878086 1.2505608 0.056530442 2278827
1.6827667 0.29219306 0.089477226 2279499
1.6842264 0.29477853 0.10121913 2279500
1.6874684 0.29907063 0.11134372 2279501
1.6912866 0.30391514 0.12095315 2279502
2.595536 1.23235 -0.011584898 2279537
2.6014225 1.2397534 0.0025072573 2279538
2.6053026 1.2451814 0.017829081 2279539
2.6071663 1.2486209 0.03434439 2279540
2.606348 1.2494107 0.052400719 2279541
1.682615 0.27893752 0.082659438 2280215
1.6853257 0.28270161 0.093283638 2280216
1.6886091 0.28700861 0.10337855 2280217
1.6930802 0.29244563 0.11241684 2280218
1.6926285 0.29319307 0.12576509 2280219
2.6104805 1.2263216 -0.031685658 2280253
2.6164496 1.233766 -0.01757721 2280254
2.6171238 1.2360375 -0.00024684015 2280255
2.619055 1.2395345 0.016288335 2280256
2.6222496 1.2442652 0.032051977 2280257
2.6207762 1.2444239 0.050524324 2280258
2.6265061 1.2516347 0.064780064 2280259
1.6879567 0.27140933 0.084336653 2280929
1.6900656 0.27458367 0.095499814 2280930
1.689078 0.27483389 0.10937617 2280931
1.6892622 0.27618334 0.12214502 2280932
2.6420143 1.2382938 -0.025853999 2280968
2.6420555 1.239956 -0.0080357334 2280969
2.6407154 1.2402731 0.010547279 2280970
2.6412947 1.2424468 0.027931562 2280971
2.6351914 1.2381257 0.049142092 2280972
2.6396244 1.2440325 0.064183511 2280973
1.6879413 0.25849837 0.090965994 2281646
1.6931055 0.26450574 0.099364623 2281647
1.6908765 0.26360044 0.11430154 2281648
1.6947427 0.26839125 0.12381484 2281649
2.6620216 1.2365799 -0.030508878 2281685
2.6660509 1.2420807 -0.015008241 2281686
2.6673787 1.2449831 0.0020879523 2281687
2.6639993 1.2433524 0.021894068 2281688
2.6632102 1.2442068 0.040106274 2281689
2.6656892 1.2482048 0.056392442 2281690
-6.9355054 -8.3189001 1.4050375 2281783
-6.9302907 -8.3175964 1.3616178 2281784
-6.9284635 -8.3197088 1.3181347 2281785
-6.9250946 -8.3202658 1.274696 2281786
1.6916242 0.2489904 0.094315663 2282364
1.6949573 0.25325722 0.10433244 2282365
1.6951734 0.25463331 0.11707476 2282366
1.6984321 0.25882706 0.12711224 2282367
2.6755598 1.2283559 -0.031125441 2282403
2.6709657 1.2256078 -0.010467914 2282404
2.6722896 1.2284918 0.0065927068 2282405
2.6762245 1.2338637 0.022100968 2282406
2.6821141 1.2411022 0.036487766 2282407
2.6866226 1.2470236 0.051685415 2282408
