# .PCD v0.7 - Point Cloud Data file format
VERSION 0.7
FIELDS x y z intensity
SIZE 4 4 4 4
TYPE F F F F
COUNT 1 1 1 1
WIDTH 1184
HEIGHT 1
VIEWPOINT 0 0 0 1 0 0 0
POINTS 1184
DATA ascii
-0.31451273 1.2621193 1.2074423 2027269
-0.31474641 1.2644454 1.2183374 2027270
-0.31400228 1.2608441 1.2299325 2027271
-0.31422022 1.2630744 1.2408303 2027272
-0.31556243 1.2721263 1.2510026 2027273
-0.31398591 1.263469 1.2630725 2027274
-0.31369519 1.2626116 1.274285 2027275
-0.31372017 1.2636703 1.2852995 2027276
-0.3142226 1.26763 1.2960539 2027277
0.31847051 -2.6298213 1.3159399 2027331
0.31840265 -2.6299181 1.3096024 2027332
0.31817579 -2.6290104 1.3034114 2027333
0.31825337 -2.6300278 1.2969137 2027334
0.31832606 -2.6310158 1.2904031 2027335
0.31885585 -2.6348972 1.283388 2027336
0.31876442 -2.6348505 1.2770071 2027337
0.31851476 -2.6338024 1.2707949 2027338
0.31826085 -2.6327276 1.2645874 2027339
0.31830937 -2.633569 1.2580224 2027340
0.31819978 -2.6334097 1.2516308 2027341
0.31793267 -2.6322525 1.2454253 2027342
0.31827238 -2.6349447 1.2384493 2027343
0.31799608 -2.6337304 1.2322373 2027344
0.31634429 -2.6237833 1.2278535 2027345
0.31012675 -2.584831 1.229756 2027346
0.29784173 -2.507298 1.2404395 2027347
0.29028934 -2.4597878 1.2451271 2027348
0.29063413 -2.4624577 1.2388105 2027349
0.28900591 -2.4525797 1.2353753 2027350
0.28949386 -2.4561617 1.2288288 2027351
0.28922132 -2.4549062 1.2234069 2027352
0.28894514 -2.4536271 1.2179908 2027353
0.28851479 -2.4513662 1.2128211 2027354
0.2888326 -2.4538729 1.2064407 2027355
0.28929499 -2.4573045 1.199783 2027356
0.29005113 -2.4626136 1.1925822 2027357
0.2897532 -2.4612019 1.1871326 2027358
0.28960094 -2.4607201 1.1814274 2027359
0.28914633 -2.4583082 1.1762524 2027360
0.29107061 -2.4710939 1.166767 2027361
0.29818642 -2.517072 1.1475537 2027362
-0.2158865 0.69003636 1.1401407 2027974
-0.21619502 0.69264203 1.1484346 2027975
-0.21697146 0.69812369 1.1561943 2027976
-0.22263989 0.7336784 1.1584452 2027977
-0.24711478 0.88490045 1.1402094 2027978
-0.25326228 0.92349482 1.1430752 2027979
-0.30645549 1.2552623 1.1412716 2027984
-0.30688936 1.2588469 1.1519616 2027985
-0.30715725 1.2614092 1.1628162 2027986
-0.30646649 1.2580581 1.1745018 2027987
-0.30560905 1.2536746 1.1862824 2027988
-0.30569506 1.2551118 1.1972538 2027989
-0.30624932 1.2594409 1.2078623 2027990
-0.3063201 1.260785 1.2188587 2027991
-0.30670056 1.2640431 1.2296321 2027992
-0.30723214 1.2682372 1.2403185 2027993
-0.30680388 1.2664965 1.2516701 2027994
-0.30541551 1.2588131 1.2636086 2027995
-0.30528912 1.2589345 1.2746981 2027996
-0.30563131 1.2619568 1.2855058 2027997
-0.30548963 1.2619832 1.2966001 2027998
0.3157036 -2.6391749 1.3211074 2028051
0.3156403 -2.6392939 1.3147358 2028052
0.31572428 -2.6403625 1.3082128 2028053
0.31550035 -2.6394479 1.3019785 2028054
0.31451529 -2.6336255 1.2965246 2028055
0.31398135 -2.6307094 1.2906395 2028056
0.31374606 -2.629719 1.2844481 2028057
0.31380844 -2.6306505 1.2779249 2028058
0.31326309 -2.6276586 1.272079 2028059
0.31346709 -2.6295061 1.2653712 2028060
0.31516969 -2.6410418 1.2568318 2028061
0.31461054 -2.6379635 1.2509661 2028062
0.31374785 -2.6329207 1.245502 2028063
0.31378159 -2.6336749 1.2389139 2028064
0.31336144 -2.6314929 1.2329086 2028065
0.31204081 -2.6234791 1.2281321 2028066
0.30564353 -2.5825748 1.2304506 2028067
0.29314607 -2.5021091 1.2417762 2028068
0.28722769 -2.4642329 1.2443342 2028069
0.28711921 -2.4640074 1.2386595 2028070
0.2858189 -2.4560504 1.2347718 2028071
0.28525922 -2.4528947 1.2298089 2028072
0.28617734 -2.4593329 1.2225457 2028073
0.2869406 -2.4647713 1.2154568 2028074
0.28651625 -2.4624977 1.2102405 2028075
0.28667834 -2.4640357 1.2040585 2028076
0.28654113 -2.4636295 1.1983557 2028077
0.28639984 -2.4631977 1.1926504 2028078
0.28566754 -2.4589202 1.1879737 2028079
0.2853725 -2.4574873 1.1825429 2028080
0.28492761 -2.4550784 1.1773847 2028081
0.28579402 -2.4612131 1.1698087 2028082
0.29233968 -2.5043743 1.1514673 2028083
-0.10702095 0.041588929 1.2039278 2028684
-0.1314688 0.19460726 1.1724788 2028685
-0.14178318 0.25952145 1.1635662 2028686
-0.15718995 0.35628068 1.1477605 2028687
-0.20895241 0.6844697 1.1325634 2028694
-0.20399928 0.65415758 1.1473504 2028695
-0.20445409 0.65770274 1.1552941 2028696
-0.20753665 0.67771846 1.1601442 2028697
-0.21387024 0.71813083 1.1614037 2028698
-0.23105517 0.82663107 1.1507781 2028699
-0.23739181 0.86714482 1.153039 2028700
-0.30027351 1.2662501 1.1396708 2028705
-0.29961202 1.2630024 1.1514163 2028706
-0.29894251 1.2597005 1.1631256 2028707
-0.299198 1.2622159 1.1739825 2028708
-0.29882395 1.2607689 1.1853814 2028709
-0.29766434 1.2543731 1.1973975 2028710
-0.29758587 1.2547821 1.2084892 2028711
-0.29827788 1.260046 1.2189848 2028712
-0.29834005 1.2613422 1.2299782 2028713
-0.29839468 1.2625908 1.2409772 2028714
-0.29859751 1.2647744 1.2518758 2028715
-0.2992599 1.269859 1.2624841 2028716
-0.29929203 1.2709675 1.2735201 2028717
-0.29760373 1.2612103 1.28558 2028718
-0.29730931 1.2602518 1.296754 2028719
0.31027898 -2.6291099 1.3163542 2028773
0.3099159 -2.6272516 1.3103186 2028774
0.30940008 -2.6243908 1.3044465 2028775
0.30977374 -2.6273656 1.2976643 2028776
0.30939877 -2.6254289 1.2916496 2028777
0.30991107 -2.6293185 1.2846649 2028778
0.31012103 -2.6312251 1.2779778 2028779
0.31002957 -2.6311531 1.2716144 2028780
0.30978572 -2.6300797 1.265424 2028781
0.30968565 -2.6299524 1.2590573 2028782
0.30958113 -2.6297965 1.2526871 2028783
0.30961972 -2.630583 1.2461237 2028784
0.30994812 -2.6332796 1.2391607 2028785
0.31012389 -2.6349735 1.2323668 2028786
0.31014755 -2.6356676 1.2257553 2028787
0.30238926 -2.5850623 1.2300881 2028788
0.29142243 -2.5132599 1.2395035 2028789
0.2838462 -2.4637718 1.2445962 2028790
0.28300908 -2.4587238 1.2400233 2028791
0.28202409 -2.4526963 1.2357132 2028792
0.28307807 -2.4601326 1.2282592 2028793
0.28339714 -2.4627194 1.2218955 2028794
0.28196687 -2.4537463 1.2183415 2028795
0.28213286 -2.4553227 1.2122129 2028796
0.28185931 -2.4539936 1.2067997 2028797
0.2817269 -2.4535985 1.2011434 2028798
0.28173503 -2.4541347 1.1952312 2028799
0.281883 -2.4555984 1.1890507 2028800
0.28159401 -2.4541693 1.1836367 2028801
0.28302714 -2.464155 1.1750364 2028802
0.2828719 -2.4636176 1.1693147 2028803
0.28944957 -2.5077443 1.1506919 2028804
-0.09449064 -0.01542566 1.2182139 2029403
-0.10369682 0.043490268 1.2094959 2029404
-0.10731285 0.066937588 1.209816 2029405
-0.11638076 0.12504777 1.2021972 2029406
-0.12227433 0.16302015 1.1997451 2029407
-0.13954176 0.27335384 1.1813022 2029408
-0.19980273 0.66009259 1.1375983 2029413
-0.19249824 0.6142326 1.155347 2029414
-0.19233367 0.61386293 1.1638613 2029415
-0.19368586 0.62316656 1.1705312 2029416
-0.20371613 0.68784976 1.1670666 2029417
-0.20750135 0.7127158 1.1713344 2029418
-0.22454707 0.8222748 1.1609794 2029419
-0.24007504 0.92221785 1.1532478 2029420
-0.29138741 1.2536232 1.1416678 2029424
-0.29195884 1.2581853 1.1521956 2029425
-0.29298156 1.2656387 1.1623353 2029426
-0.29338598 1.2691367 1.1730777 2029427
-0.2930187 1.2676921 1.1845026 2029428
-0.29325545 1.2701166 1.1953983 2029429
-0.293026 1.2695529 1.2066782 2029430
-0.29294205 1.2699208 1.2178279 2029431
-0.29086173 1.2574797 1.2304618 2029432
-0.29091555 1.258726 1.2414391 2029433
-0.29126802 1.2618898 1.2522103 2029434
-0.29069495 1.2591106 1.2636122 2029435
-0.28980827 1.2543132 1.2751782 2029436
-0.29013866 1.2573345 1.2859553 2029437
-0.29107404 1.2642472 1.2964008 2029438
0.30706295 -2.631609 1.3161377 2029492
0.30699903 -2.6317053 1.3098001 2029493
0.30663782 -2.6298182 1.3037598 2029494
0.30700466 -2.6327908 1.2969562 2029495
0.30751246 -2.6367075 1.2899629 2029496
0.30743054 -2.6366882 1.2835861 2029497
0.30705252 -2.6346908 1.2775414 2029498
0.306088 -2.6287715 1.2721996 2029499
0.30570331 -2.6267264 1.2661986 2029500
0.30589646 -2.6285472 1.2594872 2029501
0.30535859 -2.6254768 1.2536813 2029502
0.30525252 -2.6252966 1.247329 2029503
0.30514216 -2.625088 1.2409732 2029504
0.30531675 -2.62679 1.234218 2029505
0.3046194 -2.6226487 1.228657 2029506
0.29944584 -2.5884874 1.229534 2029507
0.28894895 -2.5185878 1.2385118 2029508
0.27991456 -2.4584508 1.2459484 2029509
0.28009874 -2.460161 1.2398645 2029510
0.28070888 -2.4647343 1.2330891 2029511
0.27987981 -2.4596422 1.2285479 2029512
0.27919197 -2.4554963 1.223814 2029513
0.2797882 -2.4599824 1.2169832 2029514
0.27880859 -2.4538727 1.2127548 2029515
0.27868265 -2.4535041 1.2071052 2029516
0.2785528 -2.4531097 1.201453 2029517
0.27841905 -2.4526901 1.1957984 2029518
0.278707 -2.4551125 1.1893687 2029519
0.27856481 -2.4546382 1.1836971 2029520
0.27827728 -2.4531853 1.1782894 2029521
0.27869225 -2.4564707 1.1715372 2029522
0.2874181 -2.5158434 1.148559 2029523
-0.08115799 -0.080190189 1.2344176 2030124
-0.093921132 0.0026952657 1.2195427 2030125
-0.09405034 0.0039903838 1.2249786 2030126
-0.094026998 0.0042992206 1.2306461 2030127
-0.095489763 0.014219036 1.2340916 2030128
-0.1072372 0.090688072 1.222602 2030129
-0.13868564 0.29472768 1.1836158 2030130
-0.14628524 0.34449887 1.1798851 2030131
-0.15508348 0.40206981 1.1749488 2030132
-0.19556747 0.66569489 1.1365484 2030134
-0.19122732 0.63824934 1.1506721 2030135
-0.19046882 0.6340161 1.1600401 2030136
-0.19224921 0.64625412 1.166245 2030137
-0.19327667 0.65361226 1.1734468 2030138
-0.19774596 0.68332583 1.1766847 2030139
-0.20206334 0.71207327 1.180349 2030140
-0.21897575 0.82269281 1.170294 2030141
-0.2848807 1.2546135 1.141575 2030145
-0.2864944 1.2660232 1.1510895 2030146
-0.28554726 1.2607614 1.1630844 2030147
-0.28549409 1.2613192 1.1742089 2030148
-0.28558385 1.2628078 1.1851997 2030149
-0.28581676 1.2652297 1.1960695 2030150
-0.28483924 1.2597576 1.2079389 2030151
-0.28505746 1.2620823 1.2188035 2030152
-0.28662246 1.2731985 1.2286525 2030153
-0.28667599 1.2744526 1.2396948 2030154
-0.28506687 1.2648466 1.2519058 2030155
-0.28480458 1.2640332 1.2631136 2030156
-0.28483605 1.2651385 1.2741148 2030157
-0.28501081 1.2671808 1.285028 2030158
-0.28487718 1.2672067 1.2961311 2030159
0.30244261 -2.6272998 1.3169204 2030213
0.30194896 -2.6244628 1.311044 2030214
0.30288982 -2.6313825 1.3036805 2030215
0.30181351 -2.6245813 1.2984241 2030216
0.30159599 -2.6236222 1.2922671 2030217
0.30137458 -2.6226363 1.2861143 2030218
0.30200827 -2.6274757 1.2789576 2030219
0.30235013 -2.6303308 1.2720987 2030220
0.30211541 -2.6292579 1.2659166 2030221
0.30173406 -2.6271851 1.2599205 2030222
0.30191919 -2.6289766 1.2531968 2030223
0.30181473 -2.6287935 1.2468315 2030224
0.30156386 -2.6276116 1.2406567 2030225
0.30145106 -2.6273727 1.2342892 2030226
0.30147582 -2.6280746 1.2277161 2030227
0.29611409 -2.591958 1.2289836 2030228
0.28453824 -2.5133214 1.2398436 2030229
0.27680254 -2.4608953 1.245582 2030230
0.27458495 -2.4461927 1.2432197 2030231
0.2746233 -2.4469244 1.2374032 2030232
0.27578291 -2.4553366 1.2297515 2030233
0.2755304 -2.4540813 1.2243421 2030234
0.27569526 -2.4556868 1.2182292 2030235
0.27585554 -2.457263 1.2120965 2030236
0.27475238 -2.450175 1.2081482 2030237
0.27434656 -2.4478681 1.2030112 2030238
0.27477449 -2.4512837 1.1963685 2030239
0.2747792 -2.4517965 1.1904625 2030240
0.2751967 -2.4551468 1.1837605 2030241
0.27533105 -2.4565547 1.177555 2030242
0.27656925 -2.4655547 1.1691692 2030243
0.28291807 -2.5097156 1.1505457 2030244
-0.084540159 -0.035216045 1.2288866 2030846
-0.085247241 -0.030112827 1.2332308 2030847
-0.083759725 -0.039470371 1.2410074 2030848
-0.083875135 -0.03826765 1.2462544 2030849
-0.08998584 0.0024770051 1.2425816 2030850
-0.1078122 0.12055014 1.2221893 2030851
-0.11408338 0.16244122 1.2193578 2030852
-0.12372864 0.22664072 1.212178 2030853
-0.17546752 0.56892562 1.1479814 2030854
-0.18118542 0.60736966 1.1484528 2030855
-0.18073831 0.60508931 1.1573229 2030856
-0.18028533 0.60276729 1.1661657 2030857
-0.18144284 0.61109573 1.1729625 2030858
-0.184948 0.63496453 1.1769588 2030859
-0.18903904 0.66272819 1.1804594 2030860
-0.19783591 0.72167414 1.178739 2030861
-0.21193263 0.81577176 1.1715451 2030862
-0.27852827 1.2605658 1.1407312 2030866
-0.27804846 1.258285 1.1522937 2030867
-0.27785614 1.2579103 1.1635476 2030868
-0.27854156 1.2633637 1.1739743 2030869
-0.2792201 1.2687743 1.1844423 2030870
-0.27871126 1.2662958 1.1959709 2030871
-0.27878535 1.2676903 1.2069786 2030872
-0.27811423 1.2641284 1.2185862 2030873
-0.27802628 1.2644432 1.2296984 2030874
-0.27807882 1.2656924 1.2406974 2030875
-0.2778289 1.2649276 1.2519132 2030876
-0.27757174 1.2641132 1.2631167 2030877
-0.27775052 1.2662022 1.2740165 2030878
-0.27777454 1.2672602 1.2850224 2030879
-0.27793914 1.2692559 1.2959443 2030880
0.29820609 -2.6319289 1.3164002 2030934
0.29842639 -2.6339836 1.3097739 2030935
0.29906321 -2.6389437 1.3026735 2030936
0.29885295 -2.6380017 1.296456 2030937
0.2969577 -2.6253061 1.2921559 2030938
0.29660165 -2.6233423 1.2861625 2030939
0.29624206 -2.6213531 1.2801821 2030940
0.29671678 -2.6251895 1.273181 2030941
0.29760456 -2.6319149 1.2656116 2030942
0.29695347 -2.627892 1.2599686 2030943
0.29755193 -2.6326027 1.2526894 2030944
0.29744965 -2.6324167 1.2463113 2030945
0.29748201 -2.6331737 1.239736 2030946
0.29709393 -2.6309896 1.2337432 2030947
0.29670241 -2.6287806 1.2277642 2030948
0.2906377 -2.5868335 1.2302699 2030949
0.27919823 -2.5071945 1.2413634 2030950
0.27357742 -2.4682829 1.2441179 2030951
0.27141109 -2.4535663 1.2417251 2030952
0.27048457 -2.4475369 1.2374443 2030953
0.2709302 -2.4511335 1.2309324 2030954
0.27150777 -2.4556596 1.2241514 2030955
0.27194273 -2.4591889 1.2175614 2030956
0.27196202 -2.4598014 1.2116567 2030957
0.2711578 -2.4546273 1.2072099 2030958
0.2710337 -2.4542325 1.2015576 2030959
0.27090585 -2.4538116 1.1959031 2030960
0.27118215 -2.4562359 1.1894735 2030961
0.27091047 -2.4548054 1.1840636 2030962
0.27117753 -2.4571693 1.1775962 2030963
0.27157488 -2.4604537 1.1708316 2030964
0.27791062 -2.5055957 1.1519606 2030965
-0.075056531 -0.069195636 1.2372844 2031567
-0.078452371 -0.045837369 1.2370965 2031568
-0.077141367 -0.054253355 1.2445751 2031569
-0.076538973 -0.05788869 1.250864 2031570
-0.080074839 -0.033556439 1.2508014 2031571
-0.093759544 0.05941575 1.2357926 2031572
-0.098160878 0.089661673 1.2351969 2031573
-0.10270651 0.12090538 1.2346578 2031574
-0.13101968 0.31305644 1.2010797 2031575
-0.17096162 0.58409303 1.1532848 2031576
-0.17267334 0.59635264 1.1591666 2031577
-0.17380796 0.60470933 1.1659007 2031578
-0.17522529 0.61498749 1.1723344 2031579
-0.1779303 0.63400453 1.1772389 2031580
-0.18235531 0.66470277 1.1802051 2031581
-0.18692227 0.69638568 1.1832647 2031582
-0.20341414 0.809048 1.1727905 2031583
-0.21286903 0.87400025 1.171244 2031584
-0.26785681 1.2501383 1.1424179 2031587
-0.26853973 1.2556798 1.1527703 2031588
-0.26907203 1.2601997 1.1633046 2031589
-0.26916555 1.2617351 1.1742802 2031590
-0.26910812 1.2622426 1.185394 2031591
-0.26875544 1.2607387 1.1967608 2031592
-0.26911622 1.2640938 1.2074918 2031593
-0.26903769 1.264456 1.2186025 2031594
-0.26952878 1.2687014 1.2292523 2031595
-0.26958054 1.2699524 1.2402643 2031596
-0.26962528 1.2711555 1.2512815 2031597
-0.26951891 1.271327 1.2624054 2031598
-0.26954967 1.2724345 1.2734283 2031599
-0.26841968 1.2656131 1.2851985 2031600
-0.26829228 1.2656367 1.2962843 2031601
0.29277241 -2.6297083 1.3168746 2031655
0.29243976 -2.627847 1.3108473 2031656
0.2922405 -2.6269395 1.3046818 2031657
0.29231104 -2.6279619 1.2982101 2031658
0.29224068 -2.6279774 1.2918849 2031659
0.29202983 -2.6269877 1.2857192 2031660
0.29127008 -2.6220663 1.2802297 2031661
0.2910524 -2.6210263 1.2740902 2031662
0.29123902 -2.6228845 1.2674255 2031663
0.29155684 -2.6256855 1.2605591 2031664
0.29146263 -2.6255338 1.2542187 2031665
0.29109338 -2.623409 1.2482537 2031666
0.29180354 -2.6290326 1.2407526 2031667
0.29169655 -2.628793 1.234385 2031668
0.29077545 -2.622705 1.229228 2031669
0.28715563 -2.5972173 1.2282505 2031670
0.27532655 -2.5126872 1.2403524 2031671
0.26863486 -2.4650455 1.2450198 2031672
0.26773214 -2.459022 1.2406695 2031673
0.26736447 -2.456846 1.2354726 2031674
0.26846719 -2.4652576 1.2277833 2031675
0.26862666 -2.4668818 1.2216393 2031676
0.26784685 -2.4617393 1.2171298 2031677
0.26733202 -2.4585042 1.2121789 2031678
0.26748058 -2.460052 1.2060269 2031679
0.26722577 -2.4586918 1.2006024 2031680
0.26656944 -2.4544334 1.195944 2031681
0.26630878 -2.4530299 1.1905444 2031682
0.26617724 -2.4525588 1.1848894 2031683
0.26657063 -2.4558821 1.1781689 2031684
0.26880577 -2.4725227 1.1676314 2031685
0.2741909 -2.5119576 1.1503575 2031686
-0.068667285 -0.083009057 1.2407554 2032288
-0.072254851 -0.057727695 1.2400421 2032289
-0.069723807 -0.074838102 1.2495022 2032290
-0.068995513 -0.079462126 1.2559197 2032291
-0.072441049 -0.055139247 1.2557583 2032292
-0.083969906 0.02529026 1.2434233 2032293
-0.087979458 0.053583045 1.2430915 2032294
-0.089897297 0.067370817 1.2460784 2032295
-0.10674953 0.18491052 1.227707 2032296
-0.16397803 0.58311415 1.1536019 2032297
-0.16704433 0.60509175 1.1575533 2032298
-0.16423695 0.58623761 1.1695813 2032299
-0.16477855 0.59066653 1.1770304 2032300
-0.16713464 0.60772508 1.1821811 2032301
-0.17270744 0.64718884 1.1834511 2032302
-0.17659909 0.67497224 1.1871107 2032303
-0.1811891 0.70764023 1.1901768 2032304
-0.25623557 1.2331457 1.1340013 2032307
-0.25774935 1.2445959 1.1433607 2032308
-0.25883624 1.2530738 1.1532481 2032309
-0.25907466 1.2556326 1.164046 2032310
-0.25986806 1.2620684 1.1743147 2032311
-0.2603741 1.2665 1.1848968 2032312
-0.26031163 1.26696 1.1960216 2032313
-0.25968033 1.2634423 1.2076366 2032314
-0.25988513 1.265769 1.218501 2032315
-0.2598021 1.2660825 1.2296089 2032316
-0.25957167 1.2653637 1.2408239 2032317
-0.25975618 1.2675487 1.2517092 2032318
-0.25880909 1.2618083 1.2634207 2032319
-0.25841749 1.2599552 1.2746874 2032320
-0.25815964 1.2590377 1.2858399 2032321
-0.2584576 1.2620161 1.2966255 2032322
0.2872555 -2.6284828 1.317212 2032376
0.28693235 -2.6266215 1.3111931 2032377
0.28660581 -2.6247346 1.3051869 2032378
0.28747338 -2.6316328 1.297798 2032379
0.2872718 -2.6306677 1.2916192 2032380
0.28706661 -2.6296759 1.2854447 2032381
0.2863273 -2.6247499 1.2799466 2032382
0.28585052 -2.6217556 1.2741427 2032383
0.2859 -2.6226389 1.2676547 2032384
0.2859453 -2.6234927 1.2611543 2032385
0.28559032 -2.6213953 1.255197 2032386
0.28602317 -2.6251111 1.248117 2032387
0.28539729 -2.6210146 1.2425487 2032388
0.28516337 -2.6198108 1.2364175 2032389
0.28492591 -2.6185803 1.2302917 2032390
0.27969939 -2.5804784 1.2320193 2032391
0.27015847 -2.5104506 1.2410328 2032392
0.26364827 -2.4627864 1.2457111 2032393
0.26342404 -2.4615965 1.2402767 2032394
0.26228318 -2.4536219 1.2364126 2032395
0.26309639 -2.4601114 1.2291962 2032396
0.26299262 -2.4598143 1.2235419 2032397
0.26236552 -2.4556398 1.2188299 2032398
0.26147684 -2.4495242 1.2146301 2032399
0.26149392 -2.4501219 1.2087651 2032400
0.26215398 -2.4554911 1.2016441 2032401
0.26216227 -2.4560282 1.1957362 2032402
0.26190865 -2.4546225 1.1903324 2032403
0.26190946 -2.4551065 1.1844115 2032404
0.26164913 -2.4536517 1.1790119 2032405
0.26241267 -2.4598074 1.1714584 2032406
0.26804009 -2.5021381 1.1534221 2032407
-0.060077455 -0.11125666 1.247748 2033009
-0.065458342 -0.072501495 1.2436786 2033010
-0.063941948 -0.082885176 1.2514873 2033011
-0.061878756 -0.097176634 1.2600873 2033012
-0.064010017 -0.081557699 1.2618042 2033013
-0.07495293 -0.0030458218 1.2497737 2033014
-0.078173302 0.020392453 1.2503592 2033015
-0.080308117 0.036094543 1.252786 2033016
-0.090861589 0.11195085 1.2429005 2033017
-0.15278316 0.5549739 1.1594167 2033018
-0.1580756 0.59346008 1.1599717 2033019
-0.15956007 0.60473889 1.1661202 2033020
-0.15940808 0.60431671 1.1745642 2033021
-0.1641518 0.63893229 1.1765424 2033022
-0.16657935 0.65698874 1.1817943 2033023
-0.17118381 0.69064885 1.1844671 2033024
-0.18382868 0.78194052 1.1776108 2033025
-0.18652393 0.80198389 1.1833876 2033026
-0.21990608 1.0420663 1.1538259 2033027
-0.25000316 1.2596526 1.1411659 2033029
-0.24969624 1.2583436 1.1525621 2033030
-0.24951907 1.257964 1.163799 2033031
-0.24974498 1.2604784 1.1746167 2033032
-0.25023758 1.26491 1.1851857 2033033
-0.24922049 1.2584916 1.1971905 2033034
-0.24983668 1.2638122 1.2076532 2033035
-0.24962614 1.2631887 1.21887 2033036
-0.24817827 1.2536602 1.2311065 2033037
-0.24138969 1.2056798 1.2475535 2033038
-0.24129495 1.205866 1.2583816 2033039
-0.24256168 1.2158589 1.2681903 2033040
-0.24696867 1.248487 1.2758453 2033041
-0.24890713 1.2633427 1.2854551 2033042
-0.2483765 1.2604035 1.2967849 2033043
0.28035751 -2.6194344 1.3187951 2033097
0.28185678 -2.6313083 1.3107708 2033098
0.28179812 -2.6313782 1.3044457 2033099
0.28134829 -2.6284816 1.2985811 2033100
0.2811535 -2.6275187 1.2924194 2033101
0.28082633 -2.625551 1.2864256 2033102
0.28062466 -2.6245353 1.280277 2033103
0.28041947 -2.6234932 1.274133 2033104
0.2804676 -2.6243761 1.2676406 2033105
0.28038338 -2.6242545 1.2613168 2033106
0.28055155 -2.6260531 1.2546191 2033107
0.28045946 -2.6258736 1.2482795 2033108
0.28049132 -2.6266384 1.2417427 2033109
0.28026378 -2.6254296 1.2355901 2033110
0.27952284 -2.6203101 1.2302514 2033111
0.27610597 -2.5947981 1.2292879 2033112
0.26506463 -2.5111496 1.2411857 2033113
0.25887391 -2.4644272 1.245645 2033114
0.25827596 -2.4603338 1.240864 2033115
0.25767592 -2.4562223 1.2361138 2033116
0.25745326 -2.4549897 1.2307113 2033117
0.25748011 -2.4556627 1.2248504 2033118
0.2586382 -2.4649796 1.2168521 2033119
0.25840402 -2.4636636 1.2114114 2033120
0.25703505 -2.4536715 1.2081789 2033121
0.25667086 -2.4513576 1.2030369 2033122
0.25755763 -2.4586153 1.1953781 2033123
0.25856307 -2.4667883 1.1873921 2033124
0.25743693 -2.4586453 1.1837749 2033125
0.25780785 -2.461966 1.1770337 2033126
0.25767541 -2.4614327 1.1713369 2033127
0.26350987 -2.5066459 1.1524773 2033128
-0.049757652 -0.15204488 1.2578011 2033730
-0.056549847 -0.10174203 1.2507782 2033731
-0.0566516 -0.10058064 1.2557393 2033732
-0.054254059 -0.11779686 1.2649262 2033733
-0.056451946 -0.10122342 1.2663305 2033734
-0.067858115 -0.016879577 1.2529222 2033735
-0.070192248 0.00074414851 1.2546978 2033736
-0.072130688 0.015466035 1.2572389 2033737
-0.085400611 0.11367163 1.2426342 2033738
-0.13388374 0.4714413 1.1764131 2033739
-0.14864327 0.58086312 1.1625574 2033740
-0.14876337 0.5824039 1.1705247 2033741
-0.14980304 0.59072858 1.1772128 2033742
-0.15414137 0.62340176 1.1794825 2033743
-0.15649627 0.64145494 1.18466 2033744
-0.16003817 0.66828614 1.1884525 2033745
-0.16952971 0.7390908 1.1849821 2033746
-0.18100801 0.82462865 1.179696 2033747
-0.20598981 1.0100607 1.1590512 2033748
-0.23402831 1.2182316 1.1365006 2033749
-0.23744415 1.2443801 1.1435419 2033750
-0.23966326 1.2616893 1.1521108 2033751
-0.23949184 1.2613106 1.1633564 2033752
-0.23944645 1.2618641 1.1744552 2033753
-0.23965971 1.2643331 1.185288 2033754
-0.23973404 1.2657733 1.1962633 2033755
-0.23953672 1.2651993 1.2074915 2033756
-0.23813882 1.2557192 1.2197796 2033757
-0.22558825 1.1634827 1.2416109 2033758
-0.20373808 1.0021554 1.2703481 2033759
-0.20284677 0.99633032 1.2809101 2033760
-0.2073918 1.0308793 1.2872477 2033761
-0.21817119 1.1117742 1.2893107 2033762
-0.2265566 1.174932 1.2937551 2033763
-0.23241429 1.2193391 1.3004353 2033764
0.27525532 -2.622102 1.3185494 2033818
0.27645957 -2.6320179 1.3108093 2033819
0.27577546 -2.6271844 1.3052373 2033820
0.27559036 -2.6262493 1.2990843 2033821
0.27540186 -2.6252873 1.2929354 2033822
0.27495977 -2.6223416 1.287118 2033823
0.27438992 -2.6183946 1.2814901 2033824
0.27506557 -2.6241965 1.2741711 2033825
0.27498785 -2.6241033 1.2678552 2033826
0.27577811 -2.6308115 1.2602705 2033827
0.27594078 -2.632606 1.2535472 2033828
0.27448419 -2.621707 1.2492641 2033829
0.27389574 -2.6176097 1.2437167 2033830
0.27429622 -2.6212702 1.2366174 2033831
0.27407295 -2.6200383 1.2304915 2033832
0.26964363 -2.5857782 1.2313889 2033833
0.26053092 -2.514703 1.2405878 2033834
0.25513685 -2.4727981 1.2439581 2033835
0.25357026 -2.4609518 1.2408965 2033836
0.25384858 -2.4636066 1.2345819 2033837
0.25424534 -2.467196 1.2280111 2033838
0.25328869 -2.4601374 1.2239548 2033839
0.25294331 -2.4578869 1.2187742 2033840
0.25271758 -2.4565783 1.2133673 2033841
0.25334343 -2.4619794 1.2062536 2033842
0.25237909 -2.4548514 1.2023222 2033843
0.25372654 -2.4659483 1.1936386 2033844
0.25214955 -2.4539857 1.1910272 2033845
0.25263646 -2.458302 1.1840687 2033846
0.2522701 -2.4558868 1.1789262 2033847
0.25407833 -2.4706447 1.1689395 2033848
0.2573261 -2.4967885 1.1555266 2033849
-0.040626727 -0.1880978 1.2666813 2034449
-0.051547691 -0.1050087 1.2516526 2034450
-0.051009003 -0.10867927 1.2577289 2034451
-0.050594214 -0.11141435 1.2635456 2034452
-0.051196959 -0.10643767 1.2675898 2034453
-0.060864199 -0.03270936 1.2565032 2034454
-0.063640036 -0.011214453 1.2573682 2034455
-0.063731126 -0.01008173 1.262725 2034456
-0.078401744 0.10174838 1.2451897 2034457
-0.11561017 0.3848424 1.1940367 2034458
-0.13338943 0.52051431 1.1746001 2034459
-0.13529593 0.53563607 1.1796654 2034460
-0.13617434 0.54295045 1.1863269 2034461
-0.13833134 0.55999446 1.1912519 2034462
-0.14228174 0.5906958 1.1938685 2034463
-0.14584579 0.6184774 1.1972616 2034464
-0.14863768 0.64039832 1.2018923 2034465
-0.15733519 0.70731854 1.1992466 2034466
-0.16988868 0.80366838 1.1924461 2034467
-0.18116044 0.89031583 1.1880239 2034468
-0.19114859 0.96723604 1.1858512 2034469
-0.22325777 1.212953 1.1594104 2034470
-0.22604875 1.2351202 1.1672002 2034471
-0.22754824 1.2474433 1.1765417 2034472
-0.22788391 1.2508869 1.1871732 2034473
-0.22834225 1.2552689 1.1977006 2034474
-0.22853702 1.2576391 1.2085068 2034475
-0.223703 1.2215674 1.2239704 2034476
-0.19413012 0.99628717 1.2611352 2034477
-0.18476823 0.92545789 1.2789819 2034478
-0.18068099 0.89494252 1.2918526 2034479
-0.18122631 0.89986825 1.3007886 2034480
-0.18511701 0.93041581 1.3072324 2034481
-0.19003394 0.96884596 1.3131965 2034482
-0.19404389 1.0003519 1.3201154 2034483
0.27372736 -2.6322753 1.3170649 2034537
0.27355161 -2.631391 1.3108908 2034538
0.27337247 -2.6304801 1.3047208 2034539
0.27269641 -2.6256216 1.2991744 2034540
0.27288088 -2.6275983 1.2925522 2034541
0.27244556 -2.6246502 1.2867262 2034542
0.27262241 -2.626569 1.2800826 2034543
0.27205792 -2.6225924 1.2744507 2034544
0.27234998 -2.6254303 1.267614 2034545
0.27288279 -2.630187 1.2603863 2034546
0.27267584 -2.6290574 1.2542224 2034547
0.27234328 -2.6269267 1.2482527 2034548
0.27261841 -2.6296384 1.2413288 2034549
0.27191296 -2.6245358 1.2359591 2034550
0.27169281 -2.6233003 1.2298203 2034551
0.2686705 -2.5997086 1.2284347 2034552
0.25811726 -2.5159931 1.240314 2034553
0.25304964 -2.4760151 1.2432507 2034554
0.25077975 -2.4583538 1.2414917 2034555
0.25044912 -2.4561758 1.2363073 2034556
0.25023681 -2.4549425 1.230909 2034557
0.25026298 -2.4556165 1.2250522 2034558
0.25137034 -2.4649405 1.2170583 2034559
0.25150809 -2.4665136 1.2109004 2034560
0.25164181 -2.4680567 1.2047231 2034561
0.25081152 -2.4618814 1.2005175 2034562
0.25009987 -2.4566534 1.1961073 2034563
0.24986535 -2.4552462 1.1907074 2034564
0.2496279 -2.4538155 1.1853139 2034565
0.24926829 -2.451405 1.1801926 2034566
0.2496206 -2.4547062 1.1734663 2034567
0.25638789 -2.509505 1.1518993 2034568
0.26740217 -2.5984521 1.1198232 2034569
-0.037600201 -0.19456418 1.2682968 2035170
-0.045215618 -0.135583 1.2590061 2035171
-0.046439406 -0.12576365 1.2617767 2035172
-0.0452764 -0.13431869 1.2688497 2035173
-0.048506241 -0.10903909 1.2682159 2035174
-0.054125663 -0.065326363 1.2637405 2035175
-0.060629308 -0.014765927 1.2581795 2035176
-0.060970504 -0.011695656 1.2631091 2035177
-0.072138406 0.074903786 1.2507886 2035178
-0.10775722 0.35027099 1.2010925 2035179
-0.11542492 0.41003823 1.1965017 2035180
-0.11805148 0.43091333 1.1999509 2035181
-0.12029789 0.44886518 1.2041287 2035182
-0.12355199 0.47461742 1.207023 2035183
-0.12440524 0.48182452 1.2134652 2035184
-0.12550758 0.49096242 1.2196232 2035185
-0.12963989 0.52354938 1.221859 2035186
-0.13427675 0.56006378 1.2237269 2035187
-0.13676234 0.5799467 1.228595 2035188
-0.14114304 0.61452156 1.2313284 2035189
-0.14438292 0.64028078 1.2357039 2035190
-0.15027888 0.68664449 1.2372562 2035191
-0.15819973 0.74874073 1.2369603 2035192
-0.16054638 0.76764417 1.2432044 2035193
-0.16846423 0.82978827 1.2438006 2035194
-0.17802815 0.90475243 1.2432785 2035195
-0.18556283 0.96401232 1.2453845 2035196
-0.18384005 0.95140636 1.2566959 2035197
-0.17754644 0.9032743 1.2720202 2035198
-0.1712456 0.8550514 1.2869158 2035199
-0.15897666 0.76038736 1.3063653 2035200
-0.1567211 0.74354434 1.316944 2035201
-0.17069849 0.85300058 1.3149104 2035202
-0.17477719 0.88548255 1.32109 2035203
-0.1774555 0.9070825 1.3285266 2035204
0.26940277 -2.6208503 1.3188286 2035258
0.26935309 -2.6209548 1.31256 2035259
0.26917836 -2.6200504 1.3064374 2035260
0.26948595 -2.6230414 1.2996992 2035261
0.26954669 -2.6240408 1.2932491 2035262
0.26948246 -2.624032 1.2869496 2035263
0.26941472 -2.6239951 1.2806461 2035264
0.26922253 -2.6229525 1.2745105 2035265
0.26914775 -2.6228602 1.2682033 2035266
0.26919007 -2.6237161 1.2617115 2035267
0.2689876 -2.6225915 1.2555774 2035268
0.26902249 -2.6233895 1.2490698 2035269
0.26941404 -2.6270788 1.2419696 2035270
0.26920071 -2.6258688 1.235821 2035271
0.26874432 -2.6226881 1.2300822 2035272
0.26553169 -2.5971487 1.229113 2035273
0.25467119 -2.5095334 1.2418449 2035274
0.25028369 -2.4743979 1.2437356 2035275
0.24817009 -2.4577022 1.2417653 2035276
0.2470115 -2.4487526 1.238149 2035277
0.24727973 -2.4513927 1.231874 2035278
0.24778128 -2.4559324 1.2251066 2035279
0.2475664 -2.4546499 1.2197108 2035280
0.24734868 -2.4533443 1.2143209 2035281
0.24760105 -2.4558649 1.2079581 2035282
0.24737686 -2.4545081 1.202563 2035283
0.24762137 -2.456969 1.1961615 2035284
0.24739076 -2.4555616 1.1907617 2035285
0.24739233 -2.4560466 1.1848451 2035286
0.24785966 -2.4603312 1.177855 2035287
0.24808757 -2.4626672 1.171361 2035288
0.25369155 -2.5088797 1.1522294 2035289
-0.037273034 -0.17982808 1.2647532 2035891
-0.043656107 -0.12950265 1.2576003 2035892
-0.044243414 -0.12450591 1.2615284 2035893
-0.043840569 -0.12725928 1.2672727 2035894
-0.046153501 -0.10874312 1.2681935 2035895
-0.05267125 -0.057266612 1.2620072 2035896
-0.054862849 -0.039664358 1.2635986 2035897
-0.057301607 -0.020112146 1.2649297 2035898
-0.067420766 0.059700012 1.2539738 2035899
-0.089818418 0.23591845 1.2242528 2035900
-0.103431 0.34330133 1.2097318 2035901
-0.10477021 0.35438177 1.214765 2035902
-0.10486547 0.35569736 1.2217271 2035903
-0.10657132 0.36966956 1.2263621 2035904
-0.10790201 0.3807016 1.2316397 2035905
-0.10835981 0.38487628 1.2382048 2035906
-0.10918705 0.39195937 1.2443014 2035907
-0.11125483 0.40880907 1.2488322 2035908
-0.11419113 0.43250719 1.2524004 2035909
-0.11625406 0.44934353 1.2572473 2035910
-0.11893684 0.4710741 1.2614906 2035911
-0.12149259 0.49181822 1.2660649 2035912
-0.12441938 0.51550132 1.2703947 2035913
-0.12834047 0.54704189 1.273837 2035914
-0.13176063 0.57465208 1.2780801 2035915
-0.13442995 0.59635556 1.2833277 2035916
-0.13759477 0.62198555 1.2882681 2035917
-0.14088111 0.64859247 1.2933102 2035918
-0.14329082 0.66829199 1.2993851 2035919
-0.14332616 0.66923994 1.3077263 2035920
-0.12763447 0.5458529 1.3294349 2035921
-0.16626301 0.85343969 1.3241051 2035924
-0.16814898 0.86910284 1.3319298 2035925
0.26790661 -2.6250279 1.3182696 2035979
0.26737612 -2.621202 1.3125689 2035980
0.26768401 -2.6242225 1.3058439 2035981
0.26738766 -2.6223083 1.2998629 2035982
0.26780754 -2.6262481 1.2929395 2035983
0.26726493 -2.6223207 1.2872856 2035984
0.26695907 -2.6203279 1.2813261 2035985
0.26724768 -2.6231992 1.2745193 2035986
0.26753193 -2.6260381 1.2676828 2035987
0.26721579 -2.6239626 1.2617203 2035988
0.26701578 -2.6228378 1.2555861 2035989
0.2671693 -2.6246104 1.2488893 2035990
0.26791263 -2.6312211 1.2412041 2035991
0.26746401 -2.6280613 1.2354342 2035992
0.26701272 -2.6248782 1.2296867 2035993
0.26454708 -2.60516 1.2274704 2035994
0.25381124 -2.5175223 1.2401673 2035995
0.24888326 -2.4775255 1.243098 2035996
0.24573296 -2.4521072 1.2430874 2035997
0.24635446 -2.4576755 1.2361451 2035998
0.24614802 -2.4564404 1.2307426 2035999
0.24664302 -2.4609759 1.223954 2036000
0.24642991 -2.4596882 1.2185371 2036001
0.24597985 -2.4564497 1.2136067 2036002
0.24576138 -2.4551172 1.2082098 2036003
0.24542338 -2.4528 1.2030677 2036004
0.24589854 -2.4571841 1.1961685 2036005
0.24578704 -2.4567356 1.1905113 2036006
0.24555616 -2.455303 1.1851135 2036007
0.24613434 -2.4605463 1.177862 2036008
0.24624391 -2.4619267 1.1716379 2036009
0.25062719 -2.4986012 1.1552523 2036010
-0.035080507 -0.18445286 1.2659115 2036612
-0.037121739 -0.16791074 1.2668114 2036613
-0.040993072 -0.13686153 1.2644552 2036614
-0.043279726 -0.11834706 1.2652559 2036615
-0.044833578 -0.10562861 1.2675223 2036616
-0.051275786 -0.054139815 1.2613485 2036617
-0.054298323 -0.029740512 1.2614864 2036618
-0.05438441 -0.028625581 1.2667578 2036619
-0.066466771 0.067715898 1.2523478 2036620
-0.094239749 0.2887229 1.2136154 2036621
-0.098749973 0.32509506 1.2133639 2036622
-0.099214166 0.32934034 1.2196319 2036623
-0.099184237 0.3296597 1.2266665 2036624
-0.099273197 0.33092386 1.2335184 2036625
-0.10083199 0.34388059 1.2382739 2036626
-0.10152834 0.34998253 1.2443339 2036627
-0.10160693 0.35117006 1.2512749 2036628
-0.10168175 0.35232767 1.2582211 2036629
-0.10285966 0.36227295 1.2637507 2036630
-0.10428059 0.37416115 1.2690554 2036631
-0.10483714 0.37916607 1.2755051 2036632
-0.10489774 0.38021863 1.2825739 2036633
-0.10630901 0.39204657 1.2880996 2036634
-0.10710129 0.39894217 1.2944068 2036635
-0.10764367 0.40384701 1.3010341 2036636
-0.10941467 0.41856652 1.3064229 2036637
-0.11204527 0.44016311 1.3110732 2036638
-0.11467291 0.46175066 1.3159091 2036639
-0.11705081 0.48135632 1.3211606 2036640
-0.11510938 0.46643147 1.3304446 2036641
-0.15627475 0.79849541 1.3292885 2036645
0.26628008 -2.6242335 1.3185521 2036700
0.266112 -2.6233542 1.3124169 2036701
0.26617885 -2.6244113 1.3059845 2036702
0.26600406 -2.6234777 1.2998486 2036703
0.26618257 -2.6254575 1.2932395 2036704
0.26611969 -2.625448 1.2869357 2036705
0.26688343 -2.6322613 1.2794534 2036706
0.26657572 -2.6302347 1.2734555 2036707
0.26579171 -2.624274 1.2681762 2036708
0.26559684 -2.6231768 1.2620414 2036709
0.26539871 -2.6220527 1.2559116 2036710
0.26555109 -2.6238267 1.2492192 2036711
0.2658172 -2.626543 1.2423127 2036712
0.26596129 -2.6282532 1.235575 2036713
0.26551393 -2.6250699 1.2298273 2036714
0.26213083 -2.5975778 1.2292604 2036715
0.25277695 -2.520611 1.2396698 2036716
0.24789071 -2.4806063 1.2425854 2036717
0.24535121 -2.4600251 1.241465 2036718
0.24456574 -2.453974 1.2371695 2036719
0.24436176 -2.4527428 1.2317839 2036720
0.24415496 -2.4514885 1.2264036 2036721
0.24487507 -2.4579291 1.2191402 2036722
0.24408111 -2.4518013 1.2149391 2036723
0.24421303 -2.4533622 1.2088295 2036724
0.2444568 -2.4558549 1.2024518 2036725
0.24469641 -2.4583156 1.1960462 2036726
0.24447037 -2.4569066 1.1906421 2036727
0.24389599 -2.452599 1.1860286 2036728
0.24366485 -2.4511466 1.1806496 2036729
0.24503829 -2.4630551 1.171499 2036730
0.24892545 -2.4959145 1.1562077 2036731
-0.036890939 -0.16117659 1.2602695 2037333
-0.036982719 -0.16005544 1.2649624 2037334
-0.041184388 -0.1260948 1.2619588 2037335
-0.041394778 -0.12401364 1.2665837 2037336
-0.045114823 -0.093868032 1.2648998 2037337
-0.049563784 -0.057870805 1.2621939 2037338
-0.050256297 -0.0519072 1.2662935 2037339
-0.05677022 0.00065919117 1.2605906 2037340
-0.06668736 0.080514498 1.249719 2037341
-0.091550954 0.28015587 1.2153558 2037342
-0.093834691 0.29899749 1.2185265 2037343
-0.095144369 0.31004325 1.223362 2037344
-0.09547852 0.31327304 1.2297592 2037345
-0.096539363 0.32233381 1.2351021 2037346
-0.097110406 0.32746959 1.2412199 2037347
-0.096703857 0.32476029 1.2487448 2037348
-0.096536875 0.32397208 1.2559073 2037349
-0.096853606 0.32706839 1.2624084 2037350
-0.098386131 0.33993661 1.2673513 2037351
-0.098818213 0.34396657 1.2737858 2037352
-0.099124797 0.3469893 1.2804003 2037353
-0.099183716 0.34802103 1.2873268 2037354
-0.099849313 0.35393515 1.2935538 2037355
-0.10014515 0.35687596 1.3002378 2037356
-0.10043737 0.3597891 1.3069432 2037357
-0.10145898 0.36857975 1.3129032 2037358
-0.10235505 0.37636417 1.3190598 2037359
-0.102881 0.38116965 1.3256384 2037360
-0.15133555 0.77602917 1.3313705 2037366
0.26481465 -2.6234159 1.3187025 2037421
0.26476634 -2.6235194 1.3124253 2037422
0.26471457 -2.6235948 1.3061434 2037423
0.26454139 -2.6226616 1.3000118 2037424
0.26448286 -2.6226821 1.2937253 2037425
0.26453868 -2.6236539 1.2872709 2037426
0.26435551 -2.6226389 1.2811394 2037427
0.26440418 -2.6235538 1.2746682 2037428
0.26456648 -2.625416 1.2680082 2037429
0.26425585 -2.6233411 1.2620498 2037430
0.26487911 -2.6290469 1.2546254 2037431
0.26467848 -2.6278906 1.2484707 2037432
0.26459149 -2.6276817 1.2421275 2037433
0.2643843 -2.6264713 1.2359788 2037434
0.26394087 -2.6232891 1.2302397 2037435
0.26128358 -2.601625 1.2284433 2037436
0.25177166 -2.5227039 1.2392563 2037437
0.24611175 -2.4759045 1.243667 2037438
0.24255013 -2.4466064 1.2445395 2037439
0.24269937 -2.4483106 1.2385167 2037440
0.24376972 -2.4577205 1.2306528 2037441
0.24379474 -2.4583931 1.2247876 2037442
0.24335515 -2.4551783 1.2198555 2037443
0.24383439 -2.459655 1.2130234 2037444
0.24373409 -2.4592822 1.2073691 2037445
0.24305673 -2.4540749 1.2029564 2037446
0.24352401 -2.4584594 1.1960533 2037447
0.24410084 -2.4637668 1.1888484 2037448
0.24352989 -2.459451 1.1842054 2037449
0.24375573 -2.4618194 1.1777344 2037450
0.24466065 -2.469892 1.1696169 2037451
0.2469236 -2.4893775 1.1581335 2037452
0.25916541 -2.5927186 1.1219852 2037453
-0.032566924 -0.18708727 1.2666038 2038054
-0.037331905 -0.14833526 1.2621824 2038055
-0.036461569 -0.15495531 1.2687433 2038056
-0.040749948 -0.12000615 1.2656835 2038057
-0.04311895 -0.1005066 1.2664145 2038058
-0.045127459 -0.083901137 1.2679534 2038059
-0.048819505 -0.053701907 1.2667007 2038060
-0.055040222 -0.0030734004 1.2613993 2038061
-0.067405991 0.097203858 1.2462902 2038062
-0.089299604 0.2745046 1.2165214 2038063
-0.091564648 0.29334319 1.2196664 2038064
-0.091898724 0.29658759 1.2259808 2038065
-0.091867477 0.29687965 1.2328695 2038066
-0.091953233 0.29811743 1.2395756 2038067
-0.09360531 0.31202829 1.2440089 2038068
-0.094046988 0.31615132 1.2502686 2038069
-0.09412273 0.31731361 1.2570591 2038070
-0.094920292 0.3243224 1.2628806 2038071
-0.09523093 0.32739002 1.2693908 2038072
-0.094449162 0.32160467 1.2773064 2038073
-0.094631433 0.32363114 1.2839711 2038074
-0.094689071 0.32464749 1.290794 2038075
-0.095106371 0.32858205 1.297199 2038076
-0.096125886 0.33740678 1.3029518 2038077
-0.095445931 0.33243787 1.3106277 2038078
-0.095610313 0.33432308 1.3173611 2038079
-0.096377172 0.34110433 1.3234897 2038080
-0.096413195 0.34194928 1.3303889 2038081
0.26118407 -2.6218567 1.3188871 2038142
0.26148468 -2.6249082 1.3121799 2038143
0.26062399 -2.6181102 1.3069475 2038144
0.2606864 -2.6191423 1.300532 2038145
0.26051426 -2.6181843 1.2944218 2038146
0.26056972 -2.6191595 1.287989 2038147
0.26050636 -2.6191266 1.2817112 2038148
0.26090002 -2.6229789 1.2747411 2038149
0.26105931 -2.6248419 1.2680852 2038150
0.26052564 -2.6208131 1.2624925 2038151
0.26033378 -2.6196904 1.2563756 2038152
0.26151368 -2.630244 1.2479928 2038153
0.26165721 -2.6319816 1.241254 2038154
0.26179677 -2.6336875 1.2344948 2038155
0.26067668 -2.6246619 1.2299383 2038156
0.25761771 -2.599103 1.2289635 2038157
0.24841467 -2.5211327 1.2395808 2038158
0.24162008 -2.4636512 1.2463648 2038159
0.23995027 -2.4498615 1.2437874 2038160
0.23998274 -2.4505949 1.2379751 2038161
0.24091783 -2.459038 1.2303301 2038162
0.24026382 -2.4539123 1.225852 2038163
0.24051175 -2.4564922 1.2195244 2038164
0.24030459 -2.455184 1.21413 2038165
0.2408829 -2.4605942 1.2070295 2038166
0.2410064 -2.4621177 1.2008708 2038167
0.23966676 -2.4511197 1.1979825 2038168
0.2394487 -2.4497182 1.1926122 2038169
0.23989943 -2.454046 1.1856791 2038170
0.24068056 -2.4612093 1.1779048 2038171
0.2407864 -2.46259 1.1716807 2038172
0.24434136 -2.4935524 1.1569411 2038173
0.25655505 -2.5988255 1.1202166 2038174
-0.03245398 -0.16552927 1.261399 2038774
-0.034891684 -0.14509511 1.2614559 2038775
-0.0361549 -0.13431041 1.2639525 2038776
-0.037064355 -0.12643042 1.2672057 2038777
-0.040207986 -0.10015004 1.2663816 2038778
-0.041939929 -0.085479118 1.2683483 2038779
-0.042728744 -0.078569442 1.272115 2038780
-0.051884908 -0.0026871231 1.2613689 2038781
-0.067063406 0.12290605 1.2410384 2038782
-0.08367119 0.26037762 1.2194479 2038783
-0.085298695 0.27433801 1.223491 2038784
-0.085743047 0.2785413 1.2295318 2038785
-0.086538814 0.28564841 1.2350525 2038786
-0.08697705 0.28980637 1.2411686 2038787
-0.087766953 0.29687235 1.2467902 2038788
-0.087962285 0.29902768 1.2533231 2038789
-0.088035829 0.30017668 1.2600361 2038790
-0.088697962 0.30619448 1.2659427 2038791
-0.088646203 0.30630836 1.2728451 2038792
-0.089420386 0.31325856 1.2786679 2038793
-0.089480214 0.3142975 1.2854432 2038794
-0.089180753 0.31236029 1.2926582 2038795
-0.088758938 0.30940711 1.2999923 2038796
-0.089045204 0.31232077 1.3064775 2038797
-0.090396143 0.32406446 1.3117952 2038798
-0.090438396 0.32495987 1.3186176 2038799
-0.089883454 0.32089967 1.3260609 2038800
0.25818279 -2.6271951 1.3182212 2038862
0.25847647 -2.6302443 1.3114923 2038863
0.25820011 -2.628351 1.3054856 2038864
0.25758159 -2.6234882 1.299956 2038865
0.25752586 -2.623508 1.2936695 2038866
0.25735396 -2.6225197 1.287542 2038867
0.25729176 -2.6224844 1.2812512 2038868
0.25711364 -2.6214423 1.2751285 2038869
0.25726992 -2.6233075 1.2684813 2038870
0.25753471 -2.6261184 1.2616326 2038871
0.25835654 -2.6337783 1.2538298 2038872
0.25793988 -2.6306663 1.2480363 2038873
0.25785658 -2.630455 1.2416844 2038874
0.25776994 -2.6302152 1.2353295 2038875
0.25767994 -2.6299469 1.2289714 2038876
0.25401753 -2.5985432 1.2292124 2038877
0.24579406 -2.5273488 1.2383577 2038878
0.23858984 -2.4649928 1.2461889 2038879
0.23851156 -2.4647689 1.2405393 2038880
0.23820838 -2.4625826 1.2353332 2038881
0.23801361 -2.4613423 1.2299135 2038882
0.23803742 -2.4620116 1.2240356 2038883
0.23816842 -2.4636185 1.2179103 2038884
0.23796479 -2.4623027 1.2124863 2038885
0.23786865 -2.4619269 1.2068235 2038886
0.23754948 -2.4596007 1.2016559 2038887
0.23744765 -2.4591758 1.1959968 2038888
0.23723313 -2.4577651 1.1905925 2038889
0.23690644 -2.4553719 1.185456 2038890
0.23668675 -2.4539154 1.1800687 2038891
0.23711929 -2.4581757 1.1730686 2038892
0.24059828 -2.4891534 1.1583508 2038893
0.25233081 -2.5925548 1.1222068 2038894
-0.030788487 -0.15554585 1.2590232 2039495
-0.03386328 -0.12929821 1.2577374 2039496
-0.034065746 -0.12719901 1.2623403 2039497
-0.03449592 -0.12318258 1.2665122 2039498
-0.036075074 -0.10949008 1.2685342 2039499
-0.037999079 -0.092883982 1.2700305 2039500
-0.039231293 -0.082095556 1.2729249 2039501
-0.048764486 -0.0013339702 1.2611334 2039502
-0.065689392 0.14180905 1.2371867 2039503
-0.076626942 0.23455185 1.2247202 2039504
-0.079026029 0.25531489 1.2273006 2039505
-0.080846369 0.2712068 1.2309984 2039506
-0.080468483 0.26854804 1.2383229 2039507
-0.080780752 0.27171597 1.2445412 2039508
-0.082362652 0.28561324 1.2488543 2039509
-0.082437575 0.28678158 1.2555065 2039510
-0.082972303 0.2918379 1.2614971 2039511
-0.083735652 0.29883084 1.2672025 2039512
-0.083916657 0.30090028 1.2737545 2039513
-0.083978362 0.30196062 1.2804735 2039514
-0.083920658 0.30200991 1.2873464 2039515
-0.084323443 0.30595908 1.2936348 2039516
-0.084258854 0.30595005 1.3005165 2039517
-0.084190756 0.30591059 1.3073937 2039518
-0.084235251 0.30682519 1.3141342 2039519
-0.084392406 0.30869538 1.3207508 2039520
-0.084430024 0.30955198 1.3275034 2039521
0.25340724 -2.617882 1.3134073 2039584
0.25347072 -2.6189435 1.3070052 2039585
0.25452596 -2.6288116 1.2991964 2039586
0.25347689 -2.6199982 1.2943203 2039587
0.25353014 -2.6209731 1.2878833 2039588
0.25313908 -2.618 1.2821043 2039589
0.25340608 -2.6208766 1.2753148 2039590
0.25377911 -2.6246991 1.2683194 2039591
0.25414789 -2.6284873 1.2612858 2039592
0.25407353 -2.6283348 1.2549537 2039593
0.25388631 -2.6271782 1.2488074 2039594
0.25358665 -2.6250198 1.2428598 2039595
0.25339359 -2.6238108 1.2367282 2039596
0.25297919 -2.6206286 1.2310061 2039597
0.25016329 -2.5960307 1.2298452 2039598
0.24212369 -2.5248179 1.2390021 2039599
0.23682086 -2.4779756 1.2434077 2039600
0.23511331 -2.4631946 1.2409891 2039601
0.23535968 -2.465853 1.2346748 2039602
0.23419407 -2.4558997 1.2312907 2039603
0.23400207 -2.4546416 1.225902 2039604
0.23413149 -2.4562566 1.2198106 2039605
0.23425739 -2.4578426 1.2136995 2039606
0.23384121 -2.4545808 1.2087915 2039607
0.23363814 -2.4532249 1.2034088 2039608
0.23353985 -2.4528072 1.1977792 2039609
0.23397473 -2.4571657 1.1908612 2039610
0.23451205 -2.4624469 1.1836374 2039611
0.23472378 -2.4648144 1.1771579 2039612
0.2347181 -2.4652352 1.1711911 2039613
0.23652036 -2.4818764 1.1605552 2039614
0.24884413 -2.5929542 1.1222204 2039615
-0.026944313 -0.16390637 1.2611116 2040216
-0.028377384 -0.15119094 1.2630181 2040217
-0.029135616 -0.14427677 1.2663907 2040218
-0.030117258 -0.13543445 1.2693744 2040219
-0.032673005 -0.11302551 1.2693787 2040220
-0.032977451 -0.11000342 1.2738504 2040221
-0.035532981 -0.087572806 1.2741537 2040222
-0.04507798 -0.004847629 1.2619249 2040223
-0.063315816 0.15293203 1.2349441 2040224
-0.067012638 0.18532763 1.2347178 2040225
-0.072403789 0.23237331 1.2318846 2040226
-0.074069239 0.24727428 1.2356675 2040227
-0.074376762 0.25045291 1.2417817 2040228
-0.074794285 0.25458363 1.247739 2040229
-0.076113828 0.26651502 1.2523251 2040230
-0.077996977 0.28332856 1.256156 2040231
-0.07931222 0.29523969 1.2609628 2040232
-0.079945542 0.30125645 1.2668433 2040233
-0.079782851 0.30038491 1.273878 2040234
-0.079616643 0.29948154 1.2809001 2040235
-0.080013789 0.30345765 1.2871624 2040236
-0.080067553 0.30445978 1.2938904 2040237
-0.080231398 0.3064163 1.3004819 2040238
-0.080278471 0.30736071 1.3072227 2040239
-0.079981685 0.30532184 1.314364 2040240
-0.080476008 0.31014702 1.3205885 2040241
-0.080399439 0.31001839 1.3274689 2040242
0.24986751 -2.6182806 1.3134311 2040305
0.24982154 -2.6183598 1.3071795 2040306
0.25031283 -2.6233211 1.3001492 2040307
0.25058392 -2.6262853 1.2933896 2040308
0.25063547 -2.6272559 1.2869266 2040309
0.24992949 -2.6213377 1.2816249 2040310
0.25019029 -2.624213 1.2748226 2040311
0.25044721 -2.6270554 1.2679906 2040312
0.25027075 -2.6259549 1.2618514 2040313
0.25030586 -2.6267812 1.2553475 2040314
0.25001621 -2.6246495 1.2493988 2040315
0.25047278 -2.6293199 1.2421098 2040316
0.25081798 -2.6329789 1.2349724 2040317
0.25062537 -2.6317351 1.2288077 2040318
0.2473388 -2.6022568 1.2286307 2040319
0.23788334 -2.5164416 1.2409189 2040320
0.23280796 -2.4705648 1.2451471 2040321
0.23273276 -2.4703357 1.2394762 2040322
0.23085228 -2.4536088 1.2375987 2040323
0.23098554 -2.455281 1.2315387 2040324
0.23058672 -2.4520893 1.2266178 2040325
0.23134732 -2.4595039 1.2191228 2040326
0.23115379 -2.4581919 1.2137198 2040327
0.23085245 -2.455893 1.2085673 2040328
0.23065397 -2.4545355 1.2031804 2040329
0.23034798 -2.4521928 1.1980525 2040330
0.23077334 -2.4565537 1.1911387 2040331
0.23108962 -2.4599183 1.184442 2040332
0.23087932 -2.458456 1.1790378 2040333
0.23150095 -2.4646282 1.1714814 2040334
0.23336703 -2.4822311 1.160576 2040335
0.24510105 -2.5904756 1.123078 2040336
0.20068695 -2.1905477 1.1405653 2040357
0.19797242 -2.1657953 1.1455693 2040358
0.1980534 -2.1669335 1.1403377 2040359
-0.024686538 -0.15876071 1.2599109 2040937
-0.027514488 -0.1334683 1.2588379 2040938
-0.027488155 -0.13330872 1.2638727 2040939
-0.027569206 -0.1322033 1.2686815 2040940
-0.028637657 -0.1223913 1.2715328 2040941
-0.029484877 -0.11452451 1.2748929 2040942
-0.030440731 -0.10569431 1.2781079 2040943
-0.038776647 -0.031714216 1.2676436 2040944
-0.062221147 0.17572941 1.2302897 2040945
-0.066828288 0.21692261 1.2283907 2040946
-0.064374797 0.19575308 1.2391635 2040947
-0.065338157 0.20477124 1.2439121 2040948
