# .PCD v0.7 - Point Cloud Data file format
VERSION 0.7
FIELDS x y z intensity
SIZE 4 4 4 4
TYPE F F F F
COUNT 1 1 1 1
WIDTH 1201
HEIGHT 1
VIEWPOINT 0 0 0 1 0 0 0
POINTS 1201
DATA ascii
1.8655161 -1.1842922 0.62221634 2697007
1.8693811 -1.1833183 0.62991077 2697008
1.8705269 -1.1824139 0.63895768 2697009
1.8734215 -1.1814666 0.64711559 2697010
1.8511076 -1.1811898 0.66752905 2697011
1.8719496 -1.1789092 0.67636681 2697013
2.0511291 -1.1692894 0.64259827 2697018
-9.6742439 -1.9602081 1.0187002 2697128
-9.7197323 -1.9753376 0.88755798 2697131
1.8644091 -1.1879445 0.59374785 2697718
1.8772727 -1.1867599 0.5968309 2697719
1.8759129 -1.1859014 0.60731643 2697720
1.8557777 -1.1854997 0.62728375 2697721
1.8578349 -1.1845771 0.6358338 2697722
1.8598508 -1.1836573 0.64438528 2697723
1.8672081 -1.182603 0.65029037 2697724
1.865557 -1.1817794 0.66061676 2697725
2.069236 -1.1707716 0.6242761 2697731
-9.6945381 -1.9564182 1.0172334 2697842
-9.714139 -1.9695917 0.88750172 2697845
1.8883755 -1.1883904 0.5813182 2698422
1.8737841 -1.1878184 0.59878331 2698423
1.8724161 -1.1869609 0.60925341 2698424
1.8656425 -1.1862358 0.62241167 2698425
1.8641481 -1.1853945 0.63280028 2698426
1.8625968 -1.1845599 0.64315927 2698427
1.8484288 -1.1840457 0.65966511 2698428
1.885396 -1.1822468 0.65110576 2698429
1.8756216 -1.1816286 0.66538799 2698430
1.8856181 -1.1805009 0.67012078 2698431
2.0820448 -1.1714922 0.61860323 2698435
1.9846308 -1.1715703 0.69238394 2698438
-9.7082577 -1.960778 1.0168123 2698546
-9.7069492 -1.972386 0.88824946 2698549
1.8679605 -1.1882336 0.59193683 2699135
1.8834945 -1.1869888 0.59365362 2699136
1.8759228 -1.1862718 0.6073634 2699137
1.8762878 -1.185377 0.61691433 2699138
1.8801763 -1.1844 0.6246556 2699139
1.8768693 -1.1836016 0.63597476 2699140
1.8896457 -1.1824031 0.63930666 2699141
1.8727589 -1.1819613 0.65716481 2699142
1.8764716 -1.180998 0.66489142 2699143
1.8810533 -1.1800114 0.67220479 2699144
2.0874488 -1.1706583 0.61605126 2699148
2.1050105 -1.1691989 0.61856532 2699149
-9.7008667 -1.9657989 1.0176381 2699259
-9.6903334 -1.9688982 0.975398 2699260
-9.6925564 -1.9729625 0.93245882 2699261
-9.7005606 -1.9774733 0.88910186 2699262
1.8767725 -1.1870172 0.58719224 2699850
1.874579 -1.1861743 0.59815943 2699851
1.8847742 -1.1850412 0.60269547 2699852
1.8753545 -1.1843808 0.61726713 2699853
1.8738817 -1.1835356 0.62769848 2699854
1.8562386 -1.1831064 0.64611322 2699855
1.8438524 -1.1825622 0.66171032 2699856
1.8718179 -1.1809695 0.65750223 2699857
1.8801084 -1.1790159 0.67253399 2699859
1.8937031 -1.1777755 0.67561108 2699860
2.0402246 -1.1699771 0.64755255 2699864
-9.6965733 -1.9695973 1.0182365 2699974
-9.702239 -1.981729 0.88936734 2699977
1.8740855 -1.1863495 0.58854419 2700560
1.8869705 -1.1851494 0.59166855 2700561
1.8731821 -1.1845891 0.60859215 2700562
1.8583897 -1.1840714 0.62583148 2700563
1.8524138 -1.183349 0.63843465 2700564
1.8463616 -1.1826384 0.65096939 2700565
1.8483076 -1.1817269 0.65946341 2700566
1.8645957 -1.1804332 0.6609599 2700567
1.8709936 -1.1793967 0.66735059 2700568
2.1183002 -1.1677842 0.60182101 2700573
2.0356302 -1.1693153 0.64955395 2700574
-9.6895571 -1.9692942 1.0186051 2700684
-9.7071676 -1.9823378 0.88905638 2700687
1.8679157 -1.1864556 0.59180242 2701262
1.8923218 -1.1849836 0.58891118 2701263
1.8892167 -1.1841608 0.60037613 2701264
1.8708947 -1.1837231 0.61949688 2701265
1.8720917 -1.1828129 0.62856174 2701266
1.8759285 -1.1818371 0.63628477 2701267
1.8573054 -1.1814525 0.65505707 2701268
1.861027 -1.1804907 0.66271609 2701269
1.8647151 -1.1795299 0.67039156 2701270
1.9009547 -1.1759236 0.68170649 2701273
2.0438628 -1.1690252 0.6458717 2701276
-9.6834431 -1.9695257 1.0189369 2701386
-9.708024 -1.9831022 0.88901687 2701389
1.8865907 -1.1859004 0.58206367 2701980
1.8728839 -1.1853285 0.59906197 2701981
1.8821857 -1.1842127 0.60404664 2701982
1.8870206 -1.1832029 0.61135989 2701983
1.8596698 -1.1830095 0.63486475 2701984
1.8545283 -1.1822721 0.64698523 2701985
1.8448297 -1.1816636 0.66125119 2701986
1.890775 -1.1795731 0.64829797 2701987
1.8765764 -1.1782225 0.67423296 2701989
-9.7006445 -1.9669882 1.0177164 2702104
-9.7162561 -1.9798876 0.8881526 2702107
1.8662765 -1.187066 0.5928086 2702689
1.8835804 -1.1857698 0.5935955 2702690
1.8804554 -1.1849507 0.60502177 2702691
1.8701348 -1.1843152 0.62002695 2702692
1.8588245 -1.1837184 0.63537455 2702693
1.8483099 -1.1831164 0.65016198 2702694
1.8565391 -1.1820413 0.65557498 2702695
1.8656528 -1.1809384 0.66060609 2702696
1.9028991 -1.1764512 0.68094122 2702700
2.0585861 -1.169215 0.63939738 2702703
-9.6980524 -1.9613065 1.017414 2702813
-9.7146635 -1.9742718 0.8878243 2702816
1.8955523 -1.1874132 0.57759243 2703396
1.8721035 -1.1870471 0.59969461 2703397
1.8760676 -1.1860657 0.60741657 2703398
1.8978242 -1.1846583 0.60609853 2703399
1.8821075 -1.184149 0.62381071 2703400
1.8716426 -1.1835282 0.63869858 2703401
1.8494202 -1.1832203 0.65921462 2703402
1.870206 -1.1818234 0.65852982 2703403
1.8649042 -1.1810985 0.67057878 2703404
1.8911759 -1.1786656 0.67704165 2703406
2.0513575 -1.1705381 0.64279562 2703410
-9.6914244 -1.9561971 1.0173674 2703520
-9.7140112 -1.9695979 0.88748199 2703523
1.8743393 -1.1887238 0.58881027 2704103
1.8952122 -1.1873611 0.5877912 2704104
1.8885553 -1.1866142 0.60109407 2704105
1.8452716 -1.1867375 0.63288802 2704106
1.8490921 -1.1857787 0.64049375 2704107
1.8422786 -1.1842215 0.66281432 2704109
1.8720403 -1.1826094 0.65772629 2704110
1.9048092 -1.1782708 0.68028259 2704114
2.0803547 -1.1715646 0.61949342 2704116
2.0368104 -1.1718752 0.64943027 2704117
2.007663 -1.1718092 0.67247915 2704118
-9.6754971 -1.9549689 1.0181689 2704227
-9.6938438 -1.9602301 0.9744283 2704228
-9.6980562 -1.964445 0.93135607 2704229
-9.7090435 -1.9691778 0.88778383 2704230
1.8955845 -1.1882554 0.5776515 2704817
1.8854458 -1.1875792 0.59284443 2704818
1.8841034 -1.1867151 0.60336465 2704819
1.8461581 -1.1867156 0.63242215 2704820
1.8803526 -1.1850282 0.62476718 2704821
1.8842072 -1.1840531 0.63252556 2704822
1.8709822 -1.1835043 0.64868343 2704823
1.8594491 -1.182929 0.66383535 2704824
1.8658365 -1.181904 0.67020327 2704825
1.8866457 -1.1804953 0.66973954 2704826
2.0630591 -1.1720543 0.62734109 2704830
2.0623367 -1.1711394 0.63794416 2704831
-9.7000561 -1.9686648 0.88837922 2704944
1.8681564 -1.1888351 0.59205872 2705526
1.862393 -1.1880744 0.60482949 2705527
1.8778974 -1.1868343 0.60657215 2705528
1.8497431 -1.1866083 0.63062149 2705529
1.867866 -1.1853042 0.63106322 2705530
1.8618463 -1.1845767 0.64366311 2705531
1.8647219 -1.183637 0.65178233 2705532
1.8639638 -1.1827906 0.66165954 2705533
1.8658561 -1.1818798 0.67021388 2705534
2.0994802 -1.1709951 0.61080313 2705539
2.0732977 -1.1707969 0.63303769 2705540
-9.6834412 -1.9556868 1.0177729 2705650
-9.72295 -1.9703577 0.8868978 2705653
1.8778912 -1.1886276 0.58694935 2706241
1.8810239 -1.1876619 0.59515685 2706242
1.8823398 -1.1867387 0.60428768 2706243
1.8524126 -1.186552 0.62926203 2706244
1.860715 -1.1854821 0.63465399 2706245
1.855575 -1.1847368 0.64677769 2706246
1.8485687 -1.1840469 0.65972275 2706247
1.8522718 -1.1830947 0.66734326 2706248
1.877633 -1.180716 0.67404383 2706250
2.0931053 -1.1711832 0.61369818 2706254
2.0687342 -1.1709356 0.63508552 2706255
-9.6914263 -1.9561704 1.0172923 2706365
-9.7040625 -1.9688134 0.88804984 2706368
1.9062124 -1.1879911 0.57204199 2706954
1.8694756 -1.1879085 0.60109782 2706955
1.8663189 -1.1870944 0.61246204 2706956
1.8515093 -1.1865612 0.62966859 2706957
1.8553435 -1.1855992 0.6373015 2706958
1.8663058 -1.1844627 0.64139062 2706959
1.8727795 -1.1834311 0.64776468 2706960
1.8738366 -1.1825349 0.6568023 2706961
1.8748486 -1.1816425 0.66583312 2706962
2.0940037 -1.1711473 0.61323863 2706967
2.0513978 -1.1714257 0.64282513 2706968
-9.689436 -1.9560198 1.0173968 2707078
-9.7140141 -1.9695635 0.88740826 2707081
1.8681395 -1.18883 0.5920127 2707670
1.8792367 -1.1876904 0.59603292 2707671
1.8805486 -1.1867685 0.60515612 2707672
1.8800323 -1.1858923 0.61517912 2707673
1.8651693 -1.1853648 0.63236421 2707674
1.8492962 -1.1848805 0.64984834 2707675
1.8620136 -1.1837014 0.65306008 2707676
1.8855238 -1.1822387 0.65111887 2707677
1.8892629 -1.1812698 0.65890026 2707678
2.0541329 -1.1713482 0.64159703 2707684
-9.695406 -1.9564999 1.0171262 2707794
-9.6918411 -1.9601295 0.9745236 2707795
-9.6880922 -1.9637444 0.93194002 2707796
-9.700078 -1.9685484 0.88834685 2707797
1.8805388 -1.1885688 0.58553588 2708382
1.8765781 -1.1877615 0.59743935 2708383
1.877884 -1.186841 0.60655093 2708384
1.8773617 -1.1859661 0.61656243 2708385
1.8785723 -1.1850541 0.62565452 2708386
1.8305 -1.1853509 0.65921968 2708387
1.8467658 -1.1840924 0.66058487 2708388
1.8711429 -1.182615 0.65814012 2708389
1.8748518 -1.1816537 0.66585898 2708390
2.0641665 -1.171069 0.63711429 2708396
-9.6875172 -1.9555236 1.0175797 2708506
-9.6971712 -1.9679418 0.88858289 2708509
1.8796054 -1.1886837 0.58602846 2709097
1.8765302 -1.1878564 0.5974676 2709098
1.8751681 -1.1869971 0.60794932 2709099
1.8541389 -1.1866038 0.62836426 2709100
1.8695916 -1.1853622 0.63017237 2709101
1.8385093 -1.1852458 0.65524209 2709102
1.8422323 -1.1842964 0.66281891 2709103
1.8549125 -1.1831195 0.66603935 2709104
1.8639933 -1.182027 0.67108756 2709105
1.8920714 -1.1795598 0.67669272 2709107
2.0948696 -1.1712369 0.61287856 2709110
2.065943 -1.1711181 0.63632262 2709111
1.9956982 -1.1713421 0.68762845 2709113
-9.6903496 -1.958228 1.0176752 2709221
-9.7208977 -1.9722376 0.88728893 2709224
1.8822126 -1.18818 0.58460003 2709808
1.872932 -1.1874928 0.59927469 2709809
1.8822345 -1.1863883 0.60426027 2709810
1.8701345 -1.1857852 0.62017822 2709811
1.8632901 -1.1850709 0.63328016 2709812
1.8465182 -1.1846122 0.65120196 2709813
1.8682008 -1.1832058 0.6499896 2709814
1.8719456 -1.1822422 0.65769583 2709815
1.8684493 -1.1814678 0.66888565 2709816
1.877528 -1.1803656 0.67401642 2709817
2.0686264 -1.1705464 0.6350534 2709822
-9.6920967 -1.9631004 1.0181128 2709932
-9.7047319 -1.9757638 0.88885921 2709935
1.8776375 -1.1874512 0.58686703 2710518
1.868347 -1.1867707 0.60152298 2710519
1.8785287 -1.1856428 0.60603195 2710520
1.8459214 -1.1855422 0.63235182 2710521
1.8497437 -1.1845798 0.63996106 2710522
1.8535327 -1.1836183 0.64758718 2710523
1.8734357 -1.1822437 0.64728737 2710524
1.8771918 -1.1812751 0.65501672 2710525
1.8655992 -1.180715 0.67013121 2710526
2.1474411 -1.1682737 0.58877236 2710531
2.0748541 -1.1694381 0.6321196 2710532
-9.6947174 -1.9685462 1.0184277 2710642
-9.6954107 -1.9803014 0.88990641 2710645
1.8757968 -1.1865385 0.58770347 2711229
1.878038 -1.1855906 0.59636343 2711230
1.8695656 -1.1849037 0.61050743 2711231
1.8672431 -1.1840774 0.62139004 2711232
1.871112 -1.1831012 0.6290921 2711233
1.8570442 -1.1825856 0.64571494 2711234
1.8428659 -1.1820905 0.66219896 2711235
1.8591429 -1.1808012 0.66367203 2711236
1.863728 -1.1798167 0.67090613 2711237
2.0918534 -1.1688164 0.61391002 2711242
2.0629241 -1.1687351 0.63734567 2711243
-9.6981096 -1.9495311 1.016713 2711353
-9.7037773 -1.9616663 0.8878442 2711356
1.8750964 -1.1900913 0.58854109 2711945
1.8711237 -1.1892827 0.60042131 2711946
1.8768651 -1.1882664 0.60722631 2711947
1.8701012 -1.1875322 0.62040341 2711948
1.8739765 -1.1865618 0.62811768 2711949
1.8590173 -1.1860377 0.64519471 2711950
1.8627846 -1.185079 0.65286118 2711951
1.8611239 -1.1842543 0.66316766 2711952
-9.7005148 -1.9289392 1.0147748 2712069
-9.7031975 -1.9408455 0.88608545 2712072
1.8700314 -1.1939418 0.59166199 2712659
1.8758094 -1.1929367 0.59845448 2712660
1.8762244 -1.1920373 0.60801888 2712661
1.8346882 -1.1920054 0.63884288 2712662
1.8456339 -1.1909118 0.64281303 2712663
1.8306109 -1.1903716 0.65976292 2712664
1.8666205 -1.1887234 0.65143073 2712665
1.8578508 -1.1871946 0.67464274 2712667
2.0978091 -1.1768407 0.61221671 2712672
-9.7009563 -1.9218392 1.0141701 2712783
-9.7116013 -1.9343216 0.88496381 2712786
1.8958321 -1.1947855 0.57836735 2713374
1.8848037 -1.1940881 0.59401721 2713375
1.8896861 -1.1930978 0.60133809 2713376
1.8642255 -1.192709 0.62407118 2713377
1.8654073 -1.1918072 0.63310546 2713378
1.8557987 -1.1911329 0.64747089 2713379
1.8819929 -1.1897082 0.64410013 2713380
1.8659837 -1.1891824 0.66148019 2713381
-9.6879177 -1.9366615 1.016157 2713498
-9.7095184 -1.9499513 0.88639873 2713501
1.8841639 -1.1921123 0.58411986 2714090
1.8562478 -1.1917841 0.60846901 2714091
1.8672931 -1.1906712 0.61246991 2714092
1.8774446 -1.1895704 0.61700261 2714093
1.8813357 -1.1886009 0.62474835 2714094
1.8261005 -1.1889586 0.66187644 2714095
1.87466 -1.1869934 0.64734757 2714096
1.8631331 -1.1863919 0.66251302 2714097
2.0868378 -1.1753814 0.61704808 2714103
2.0660989 -1.1749892 0.63676512 2714104
1.9958452 -1.1750734 0.68805909 2714106
-9.713438 -1.9657503 0.88748795 2714217
1.8830851 -1.1893218 0.58433104 2714802
1.8871174 -1.188334 0.59210104 2714803
1.8884473 -1.187407 0.60125881 2714804
1.8558592 -1.187264 0.6276179 2714805
1.8695296 -1.1860688 0.63033181 2714806
1.8814185 -1.1849066 0.63403809 2714807
1.8637017 -1.1844623 0.65238971 2714808
1.8557495 -1.183795 0.66576099 2714809
-9.6993551 -1.9671881 0.88862556 2714929
1.8706356 -1.1891377 0.59078509 2715515
1.8702027 -1.1882547 0.60080403 2715516
1.8839463 -1.187053 0.6034947 2715517
1.8513491 -1.1869208 0.62983513 2715518
1.8614364 -1.1858095 0.63432521 2715519
1.8762083 -1.1837022 0.64616603 2715521
1.8673837 -1.1830528 0.66002941 2715522
1.8728871 -1.1820467 0.66686571 2715523
-9.6936789 -1.9550837 1.0174329 2715639
-9.7140112 -1.9605026 0.97350335 2715640
-9.7012968 -1.9634582 0.93136483 2715641
-9.7102938 -1.968045 0.88790876 2715642
1.8821498 -1.1888764 0.58474195 2716230
1.8639948 -1.1883827 0.60402197 2716231
1.8590475 -1.1876103 0.61627626 2716232
1.8656147 -1.1865783 0.62258393 2716233
1.8659068 -1.185693 0.63207448 2716234
1.8500358 -1.1852038 0.64956236 2716235
1.8735209 -1.1837587 0.64748365 2716236
1.8718829 -1.1829292 0.65783703 2716237
2.0621855 -1.1714865 0.63806695 2716244
-9.685606 -1.9559522 1.0178937 2716354
-9.6979771 -1.9607731 0.97444409 2716355
-9.6952209 -1.9644678 0.93177474 2716356
-9.6992445 -1.9686753 0.88866627 2716357
1.8653089 -1.1889383 0.59348595 2716947
1.8630892 -1.1880987 0.6044029 2716948
1.8670338 -1.1871235 0.61208636 2716949
1.856683 -1.1864841 0.6270327 2716950
1.8605289 -1.1855184 0.63468874 2716951
1.8697126 -1.1844221 0.63969111 2716952
1.8412058 -1.184261 0.66328716 2716953
1.851187 -1.1831523 0.66781533 2716954
1.8674675 -1.1818742 0.66938066 2716955
1.87835 -1.1807264 0.6736486 2716956
2.0503118 -1.1714956 0.64331222 2716961
-9.6703014 -1.9600903 1.0191588 2717071
-9.708827 -1.9747001 0.88852036 2717074
1.8767515 -1.1877366 0.58737236 2717665
1.8878684 -1.1865855 0.59143031 2717666
1.8758601 -1.1859708 0.60744315 2717667
1.8396814 -1.1859522 0.63556254 2717668
1.8434901 -1.1849936 0.64314473 2717669
1.8454752 -1.1840807 0.65163392 2717670
1.853699 -1.1830106 0.65703541 2717671
1.8574134 -1.1820531 0.66467905 2717672
2.0693848 -1.1698911 0.63462144 2717679
-9.6957979 -1.9674778 1.0183148 2717789
-9.7041817 -1.9720143 0.97504097 2717790
-9.7044096 -1.975937 0.93216133 2717791
-9.71838 -1.9809167 0.88836765 2717792
1.8988273 -1.1862357 0.57567185 2718374
1.8789372 -1.1857978 0.5959484 2718375
1.8864743 -1.1847239 0.60187376 2718376
1.8859717 -1.1838439 0.61192381 2718377
1.8550458 -1.1837306 0.63722062 2718378
1.8489995 -1.1830159 0.64976686 2718379
1.8626131 -1.1817991 0.65253574 2718380
1.8663462 -1.1808347 0.66021818 2718381
1.8700457 -1.1798711 0.66791713 2718382
2.098237 -1.1688819 0.61106086 2718387
2.0665846 -1.1688751 0.63575351 2718388
-9.6870775 -1.9640954 1.0185734 2718498
-9.7046928 -1.9771382 0.88906425 2718501
1.8819888 -1.1871264 0.58454221 2719090
1.8824693 -1.1862171 0.59415048 2719091
1.8837893 -1.1852913 0.60328889 2719092
1.844064 -1.1853647 0.63325566 2719093
1.8737863 -1.1837609 0.62783492 2719094
1.8731514 -1.1828985 0.63779157 2719095
1.8733606 -1.1820189 0.64728487 2719096
1.8771167 -1.1810496 0.65501416 2719097
1.8881809 -1.1781471 0.67830062 2719100
2.1322176 -1.1674842 0.60629362 2719104
-9.7003908 -1.9598186 1.0174106 2719214
-9.6960611 -1.9672961 0.93200135 2719216
-9.714016 -1.972563 0.88798851 2719217
1.8802874 -1.1881143 0.58554709 2719805
1.8807639 -1.1872064 0.59514767 2719806
1.8847481 -1.1862203 0.60290825 2719807
1.8976113 -1.1850234 0.60615748 2719808
1.8702821 -1.1847922 0.62970656 2719809
1.8624779 -1.1841086 0.64320856 2719810
1.8474132 -1.1836199 0.66015601 2719811
1.8502156 -1.1826899 0.66820973 2719812
2.1074016 -1.1702487 0.60705942 2719818
2.0493233 -1.1709807 0.64367348 2719819
-9.6877451 -1.9543991 1.0176011 2719929
-9.7053623 -1.9674184 0.88808972 2719932
1.8865503 -1.1887579 0.58232749 2720516
1.8843786 -1.1879065 0.59333676 2720517
1.8901494 -1.18688 0.60019958 2720518
1.8557832 -1.1867875 0.62747276 2720519
1.8605205 -1.185802 0.6346761 2720520
1.8652281 -1.1848162 0.64190394 2720521
1.8609345 -1.1840528 0.65356821 2720522
1.8646642 -1.1830944 0.66124332 2720523
1.9273105 -1.1770827 0.67939627 2720528
2.1675367 -1.169439 0.5797956 2720529
2.0493937 -1.1718383 0.64371234 2720530
1.9854934 -1.1718812 0.6920625 2720532
-9.6897316 -1.9545766 1.0175024 2720640
-9.7113266 -1.9678988 0.88770771 2720643
1.8830122 -1.1888313 0.58418769 2721233
1.8808326 -1.1879818 0.59518158 2721234
1.8785911 -1.18714 0.60613918 2721235
1.8415251 -1.1871161 0.6347208 2721236
1.8587375 -1.1858406 0.63557661 2721237
1.8526986 -1.185117 0.64813763 2721238
1.8447894 -1.1844493 0.66151214 2721239
1.8601725 -1.1832041 0.66343236 2721240
1.8728682 -1.1820167 0.66677052 2721241
-9.7082863 -1.9679425 0.88789624 2721360
1.8998682 -1.1884096 0.57536101 2721949
1.8675543 -1.188225 0.60208708 2721950
1.8697301 -1.187289 0.61070329 2721951
1.8816689 -1.1861267 0.61434031 2721952
1.8748498 -1.1854037 0.62749243 2721953
1.870636 -1.1846279 0.63923317 2721954
1.8726336 -1.1837058 0.64783257 2721955
1.8790851 -1.1826726 0.65424651 2721956
1.8683965 -1.1820791 0.66893446 2721957
-9.6915922 -1.9553745 1.0174135 2722073
-9.699254 -1.9676492 0.88849354 2722076
1.8892895 -1.1885762 0.58094585 2722663
1.8844615 -1.1877829 0.59334838 2722664
1.8786705 -1.1870205 0.60614818 2722665
1.8692364 -1.1863531 0.6206919 2722666
1.8784693 -1.1852531 0.6257084 2722667
1.8608347 -1.1848027 0.64414096 2722668
1.8646057 -1.1838411 0.65181506 2722669
1.8683429 -1.1828804 0.65950578 2722670
2.094815 -1.1713519 0.61290413 2722676
2.0668001 -1.1712052 0.63593841 2722677
-9.694581 -1.9555941 1.0172606 2722787
-9.7032356 -1.9679474 0.8882373 2722790
1.8768935 -1.1888484 0.5874483 2723380
1.8853486 -1.1877642 0.59288865 2723381
1.8724443 -1.1871639 0.60934591 2723382
1.8736928 -1.1862499 0.61842847 2723383
1.8775756 -1.1852754 0.62615818 2723384
1.8295014 -1.185567 0.65971935 2723385
1.8394853 -1.1844665 0.66416895 2723386
1.8764338 -1.1826763 0.65557092 2723387
2.0677118 -1.1711801 0.63552934 2723394
-9.6865377 -1.9555624 1.0177054 2723504
-9.716095 -1.9694873 0.8874352 2723507
1.9008298 -1.188223 0.5749101 2724090
1.8773921 -1.1878417 0.59703451 2724091
1.8867046 -1.1867367 0.60203952 2724092
1.8407429 -1.1869215 0.63518435 2724093
1.8445538 -1.1859649 0.64277065 2724094
1.8357983 -1.1853153 0.65660477 2724095
1.8664297 -1.1836966 0.65093428 2724096
1.8719687 -1.1826891 0.65775824 2724097
1.8756796 -1.1817269 0.66548097 2724098
1.8856761 -1.1805991 0.67021376 2724099
2.1087725 -1.1698872 0.61709052 2724104
-9.6801977 -1.9603589 1.0184976 2724214
-9.7027941 -1.9737632 0.88875705 2724217
1.8750843 -1.1878356 0.58829468 2724802
1.8817604 -1.186788 0.59464806 2724803
1.8839675 -1.1858425 0.60332596 2724804
1.8460236 -1.1858611 0.63238543 2724805
1.8498459 -1.1848994 0.63999474 2724806
1.8572156 -1.1838493 0.64584047 2724807
1.8654643 -1.1827734 0.65129262 2724808
1.8747743 -1.1799341 0.67528403 2724811
-9.6958208 -1.9665753 1.018095 2724926
-9.6905432 -1.9778689 0.88994575 2724929
1.8909105 -1.1865262 0.57979804 2725511
1.8727766 -1.1860505 0.59911853 2725512
1.8696281 -1.1852372 0.61049849 2725513
1.8289806 -1.1853498 0.6408568 2725514
1.8327657 -1.1843959 0.64839238 2725515
1.871429 -1.1825528 0.63858318 2725516
1.8599725 -1.1819777 0.65380532 2725517
1.8511144 -1.1813487 0.66759944 2725518
1.8736995 -1.1798843 0.66612911 2725519
1.879178 -1.1788709 0.67300093 2725520
1.8891528 -1.1777303 0.67777634 2725521
2.0675485 -1.1689738 0.63529211 2725525
-9.7046423 -1.9697149 1.0179324 2725635
-9.7093067 -1.9817861 0.8890239 2725638
1.8952718 -1.1860008 0.57746482 2726224
1.8771484 -1.1855266 0.59680504 2726225
1.8713419 -1.1847761 0.60957468 2726226
1.8565456 -1.1842576 0.62680626 2726227
1.8630708 -1.1832197 0.63311464 2726228
1.8480905 -1.1827323 0.6501478 2726229
1.8518343 -1.1817725 0.657767 2726230
1.8591406 -1.1807176 0.66365302 2726231
1.8673291 -1.1796352 0.66915309 2726232
1.8818214 -1.1783738 0.67170161 2726233
2.1073198 -1.1682645 0.60685515 2726237
2.0765975 -1.1682314 0.6311779 2726238
-9.6926661 -1.9689428 1.0185345 2726348
-9.7092791 -1.981918 0.88901156 2726351
1.8908617 -1.1860719 0.57977939 2726939
1.8753903 -1.1855372 0.5977183 2726940
1.8793622 -1.1845505 0.60545534 2726941
1.8966689 -1.1832337 0.60641575 2726942
1.8684466 -1.1830533 0.63041222 2726943
1.8355751 -1.1830242 0.65637243 2726944
1.8617184 -1.1814829 0.65290469 2726945
1.8645508 -1.1805426 0.66102064 2726946
1.9090401 -1.1758393 0.67796499 2726950
2.0900469 -1.1687419 0.61470997 2726952
2.0529087 -1.1689106 0.64182669 2726953
-9.6806574 -1.9683247 1.0191574 2727063
-9.7012615 -1.9815937 0.88953388 2727066
1.875846 -1.1863704 0.58768183 2727652
1.8727633 -1.1855491 0.59910583 2727653
1.8731719 -1.1846501 0.60865861 2727654
1.8512496 -1.1843079 0.62952149 2727655
1.8354326 -1.1838372 0.64703345 2727656
1.8374002 -1.1829274 0.65548766 2727657
1.8527827 -1.1816671 0.65732324 2727658
1.856495 -1.1807076 0.66496271 2727659
-9.6879807 -1.963904 1.0183432 2727776
-9.6884003 -1.9678308 0.97554851 2727777
-9.6906242 -1.9718971 0.93261826 2727778
-9.7065897 -1.9770179 0.8887561 2727779
1.8803345 -1.1871666 0.5854367 2728362
1.8825854 -1.1862173 0.59411609 2728363
1.885684 -1.1852497 0.602341 2728364
1.8513101 -1.1851927 0.62959766 2728365
1.855144 -1.1842271 0.63723016 2728366
1.8455169 -1.1836016 0.65155679 2728367
1.8331076 -1.183061 0.66710711 2728368
1.8665407 -1.1804698 0.66966105 2728370
1.8892009 -1.1781261 0.67784095 2728372
2.0466287 -1.1700295 0.64478642 2728376
-9.6764107 -1.957647 1.0185504 2728486
-9.7099552 -1.9718753 0.88815439 2728489
1.8901405 -1.1879675 0.58046973 2729079
1.9021749 -1.1867921 0.58412504 2729080
1.8901979 -1.186166 0.60019934 2729081
1.8344405 -1.1865935 0.63834232 2729082
1.8382376 -1.185639 0.64590138 2729083
1.8804954 -1.1837348 0.6343376 2729084
1.8843082 -1.182761 0.64209718 2729085
1.8575208 -1.1825727 0.66474217 2729086
1.8693095 -1.1814051 0.66850168 2729087
1.8738765 -1.1804219 0.67578363 2729088
2.0802152 -1.1711069 0.61950541 2729092
2.050349 -1.1710297 0.64329678 2729093
1.9773006 -1.1713705 0.69567531 2729095
-9.7005472 -1.9561005 1.0170172 2729203
-9.7072058 -1.9683148 0.88804507 2729206
1.860077 -1.1892359 0.59631479 2729792
1.8667194 -1.1882004 0.60260302 2729793
1.8671142 -1.187305 0.61212879 2729794
1.8505239 -1.1868099 0.63024485 2729795
1.8641825 -1.1856135 0.63293523 2729796
1.8518883 -1.1850394 0.64863503 2729797
1.8376973 -1.1845282 0.66509396 2729798
1.8602575 -1.1831036 0.66348463 2729799
1.8594394 -1.1822641 0.67332351 2729800
2.0485697 -1.1717469 0.64417654 2729806
-9.7091522 -1.9686722 0.88788265 2729919
1.8928634 -1.1884623 0.57910967 2730503
1.8853811 -1.1877266 0.59290922 2730504
1.8929327 -1.1866581 0.59886247 2730505
1.8977919 -1.1856492 0.60622251 2730506
1.8651019 -1.1855364 0.63246417 2730507
1.8671334 -1.1846131 0.6410467 2730508
1.8727119 -1.1836033 0.64786571 2730509
2.101217 -1.1711293 0.61002922 2730516
2.1124227 -1.1698529 0.61547172 2730517
-9.6995106 -1.9562243 1.0170662 2730627
-9.6942291 -1.9675351 0.88887906 2730630
1.8778094 -1.1888093 0.58702511 2731221
1.8756176 -1.1879624 0.59799594 2731222
1.8813685 -1.1869401 0.60482013 2731223
1.8567876 -1.1866251 0.62707347 2731224
1.8606334 -1.1856596 0.6347295 2731225
1.8447508 -1.1851751 0.65219414 2731226
1.8529729 -1.1841104 0.6575923 2731227
1.8566855 -1.1831557 0.66523224 2731228
2.0921147 -1.171404 0.61418676 2731234
2.0668299 -1.17118 0.63597983 2731235
-9.6858721 -2.006135 1.0221865 2731345
-9.693531 -2.0184526 0.89329672 2731348
1.8807013 -1.179494 0.5843308 2731933
1.8909373 -1.1783141 0.58886439 2731934
1.8771626 -1.1778018 0.60581177 2731935
1.8436728 -1.1778705 0.63259387 2731936
1.8635633 -1.1764249 0.63210499 2731937
1.8673818 -1.1754384 0.63979167 2731938
1.8675792 -1.1745608 0.64926153 2731939
1.8686267 -1.1736606 0.65827912 2731940
2.1047065 -1.1615901 0.59664536 2731945
2.0741014 -1.1616529 0.62111956 2731946
2.0615532 -1.1611363 0.63710672 2731947
-9.6690226 -2.0675616 1.0285289 2732057
-9.6933212 -2.0735555 0.9844718 2732058
-9.6905661 -2.0772228 0.94178241 2732059
-9.6985617 -2.0818276 0.89840788 2732060
1.8816098 -1.1680732 0.58240819 2732648
1.864359 -1.1677597 0.60124964 2732649
1.8638629 -1.1668904 0.61122876 2732650
1.8588606 -1.166183 0.62345541 2732651
1.8627108 -1.1651706 0.63112283 2732652
1.8656329 -1.1641916 0.63925326 2732653
1.8523831 -1.1638026 0.65535104 2732654
1.865975 -1.1624392 0.65817046 2732655
1.866973 -1.1615374 0.66717261 2732656
1.9149803 -1.1570979 0.67300749 2732659
-9.6905394 -2.0980871 1.0299212 2732772
-9.6961956 -2.1103168 0.90100837 2732775
1.8758787 -1.1630771 0.58473343 2733363
1.8843262 -1.1618693 0.59016639 2733364
1.8918716 -1.1606907 0.59611338 2733365
1.8424151 -1.1616666 0.63116539 2733366
1.8712139 -1.1596941 0.6261583 2733367
1.8750488 -1.1586665 0.6338805 2733368
1.8609271 -1.1583456 0.65046686 2733369
1.8574721 -1.1576172 0.66165257 2733370
2.0744917 -1.1432312 0.61866605 2733376
2.0419183 -1.1436951 0.64371276 2733377
-9.6656666 -2.0342529 1.0258551 2733487
-9.7071524 -2.0494137 0.89503992 2733490
1.8732392 -1.1743444 0.5876146 2734075
1.8834569 -1.1731373 0.59211457 2734076
1.8812246 -1.1723109 0.60308921 2734077
1.8530971 -1.1723084 0.62717873 2734078
1.8533636 -1.171427 0.63661879 2734079
1.8526866 -1.1705799 0.64649034 2734080
1.8564398 -1.1695907 0.65413052 2734081
1.8601596 -1.1686026 0.66178709 2734082
2.0782211 -1.1555381 0.61855727 2734088
2.070241 -1.1548879 0.63251555 2734089
-9.686264 -1.9731416 1.01937 2734199
-9.7056007 -1.9785212 0.97552532 2734200
-9.6988602 -1.9819108 0.93305612 2734201
-9.6998978 -1.9858992 0.89011937 2734202
1.8855895 -1.1854209 0.58261573 2734793
1.886965 -1.1844872 0.5917787 2734794
1.8820698 -1.1837109 0.60413414 2734795
1.8441252 -1.1837757 0.63319016 2734796
1.8533024 -1.1826721 0.63809657 2734797
1.8579936 -1.1816807 0.64529258 2734798
1.8635523 -1.1806651 0.65207171 2734799
1.8457133 -1.1802832 0.6702562 2734800
1.8835994 -1.1783819 0.66139096 2734801
1.8872927 -1.1774092 0.6691646 2734802
2.070971 -1.168442 0.62344152 2734806
2.0319731 -1.1686916 0.65129632 2734807
1.9826574 -1.1684097 0.69307446 2734809
-9.6954851 -1.9561532 1.0173544 2734917
-9.6991625 -1.9681422 0.88864082 2734920
1.8946581 -1.1884382 0.57825619 2735505
1.8747562 -1.1879789 0.59851122 2735506
1.8840625 -1.1868751 0.60350472 2735507
1.8764232 -1.1861624 0.6171658 2735508
1.8829916 -1.1851217 0.62356019 2735509
1.862681 -1.1847335 0.6433472 2735510
1.8386444 -1.1844617 0.66470581 2735511
1.8657957 -1.1820557 0.67034274 2735513
1.9002136 -1.1794162 0.67298454 2735515
2.0621088 -1.1722436 0.62789345 2735518
2.0422363 -1.1718781 0.64709741 2735519
-9.690484 -1.9558916 1.0176241 2735629
-9.6951599 -1.9679511 0.88891149 2735632
1.8760775 -1.1888305 0.58801746 2736214
1.8907425 -1.1876066 0.59022987 2736215
1.8796289 -1.1869621 0.60579681 2736216
1.8488044 -1.1867938 0.63121235 2736217
1.8704985 -1.1854055 0.62985426 2736218
1.874332 -1.1844349 0.63756984 2736219
1.867366 -1.1837329 0.6505965 2736220
1.8468348 -1.1833855 0.67010558 2736221
1.8712142 -1.1819009 0.66775119 2736222
2.0712221 -1.1719695 0.62376487 2736227
2.0541029 -1.1715206 0.64177912 2736228
1.9875321 -1.172536 0.68154079 2736229
-9.6784706 -1.9558535 1.018314 2736338
-9.7057762 -1.9617933 0.97406018 2736339
-9.7030172 -1.9654937 0.93135631 2736340
-9.7100239 -1.9699332 0.88802046 2736341
1.8787256 -1.1886159 0.58660918 2736926
1.8747612 -1.1878083 0.59850484 2736927
1.88051 -1.1867853 0.6053251 2736928
1.8764282 -1.1859913 0.61715937 2736929
1.8803167 -1.1850142 0.62490064 2736930
1.870743 -1.1843666 0.6393351 2736931
1.861078 -1.1837344 0.65366989 2736932
1.8630095 -1.1828202 0.66221946 2736933
1.8775126 -1.1815816 0.66470242 2736934
1.8766794 -1.1807379 0.67459655 2736935
2.0960371 -1.17014 0.62291348 2736940
-9.6979227 -1.9630928 1.0177412 2737050
-9.702323 -1.9673272 0.97468084 2737051
-9.7015572 -1.9711753 0.93186992 2737052
-9.7025919 -1.9751625 0.88892436 2737053
1.8946524 -1.1871893 0.57814211 2737637
1.8765259 -1.186703 0.59747708 2737638
1.8813891 -1.1856967 0.60476154 2737639
1.8737441 -1.1849908 0.61841142 2737640
1.8579751 -1.1844958 0.63601905 2737641
1.8492486 -1.1838437 0.64991194 2737642
1.8610684 -1.1826789 0.6535641 2737643
1.8540099 -1.1819979 0.66648698 2737644
1.8666917 -1.1808035 0.66979694 2737645
2.0604587 -1.169992 0.63877887 2737651
-9.6945562 -1.9682397 1.0183905 2737761
-9.6992283 -1.9803089 0.88961303 2737764
1.881302 -1.1865129 0.58502346 2738349
1.8622591 -1.1860647 0.60476226 2738350
1.8608654 -1.1852139 0.61518228 2738351
1.8549579 -1.1844795 0.62783784 2738352
1.8704113 -1.1832181 0.62964791 2738353
1.8742443 -1.182243 0.63736314 2738354
1.8583083 -1.1817839 0.6548034 2738355
1.8611329 -1.1808451 0.66290367 2738356
1.869325 -1.1797619 0.66841173 2738357
1.8910911 -1.1774313 0.6770401 2738359
2.0847671 -1.1691338 0.61733007 2738362
2.0421472 -1.1694639 0.64688146 2738363
-9.6974115 -1.9554613 1.0171051 2738473
-9.7199936 -1.9688808 0.88714272 2738476
1.8832855 -1.1888399 0.58433348 2739065
1.8961917 -1.1876532 0.58749807 2739066
1.8939837 -1.1868019 0.59852111 2739067
1.8792346 -1.186249 0.61584729 2739068
1.8741962 -1.1854837 0.62808961 2739069
1.8574468 -1.1850116 0.64605725 2739070
1.8683871 -1.1838737 0.65018642 2739071
1.8622425 -1.1831603 0.66270268 2739072
1.8659326 -1.1822034 0.67038244 2739073
2.1459723 -1.1700504 0.58987594 2739078
2.056052 -1.1716492 0.64099377 2739079
-9.6952095 -1.9290742 1.0149928 2739189
-9.7088394 -1.9417807 0.88565886 2739192
1.8942386 -1.1934296 0.57924002 2739778
1.8982953 -1.1924453 0.58705711 2739779
1.8925326 -1.1916584 0.59991324 2739780
1.851923 -1.1915994 0.63035345 2739781
1.8700532 -1.1903449 0.63080758 2739782
1.8738854 -1.1893852 0.63852024 2739783
1.8776836 -1.1884263 0.64624971 2739784
1.8571695 -1.1880162 0.66579628 2739785
1.881574 -1.1865937 0.66349113 2739786
1.885263 -1.1856388 0.67125458 2739787
2.0908227 -1.176958 0.6156382 2739791
2.0409055 -1.1773032 0.64847386 2739792
-9.6877975 -1.9048253 1.0132936 2739902
-9.7103977 -1.9181181 0.88349026 2739905
1.8706046 -1.1981598 0.59215295 2740492
1.8825976 -1.1970609 0.59572583 2740493
1.8839158 -1.1961429 0.60486102 2740494
1.8504133 -1.1958612 0.63163441 2740495
1.8506703 -1.1949856 0.64105535 2740496
1.8678938 -1.1937881 0.64201373 2740497
1.8716793 -1.1928416 0.64971679 2740498
1.8709342 -1.1919866 0.65962082 2740499
1.8656304 -1.1912301 0.67166686 2740500
2.0847616 -1.1819106 0.61895978 2740505
2.0302637 -1.1822464 0.65380341 2740506
-9.6961927 -1.9306079 1.0150102 2740616
-9.7118139 -1.9434539 0.88553351 2740619
1.8967867 -1.1930541 0.57772571 2741207
1.8751101 -1.1925777 0.59890437 2741208
1.8746332 -1.191697 0.60892147 2741209
1.8455746 -1.191415 0.63340116 2741210
1.8592237 -1.1902562 0.6360715 2741211
1.8531835 -1.1895169 0.64863104 2741212
1.8542459 -1.1886289 0.65759397 2741213
1.8552635 -1.1877445 0.66654992 2741214
1.8598403 -1.1867801 0.67376614 2741215
1.8797374 -1.185451 0.67370909 2741216
1.8860954 -1.1844342 0.68018913 2741217
2.0697775 -1.1771437 0.6250239 2741220
2.0936909 -1.175579 0.62459689 2741221
-9.6814537 -1.9558015 1.0180621 2741331
-9.7239504 -1.9707077 0.88702136 2741334
1.8893774 -1.1884023 0.58100516 2741919
1.8756753 -1.1878083 0.59801334 2741920
1.8778687 -1.1868669 0.60666424 2741921
1.8657587 -1.186263 0.62256259 2741922
1.8535447 -1.1856774 0.63833857 2741923
1.8412274 -1.1851102 0.65399188 2741924
1.8485446 -1.184069 0.65981561 2741925
1.8630362 -1.1828419 0.66218859 2741926
1.8694309 -1.1818141 0.66857207 2741927
1.8839281 -1.1805695 0.67113012 2741928
2.0459144 -1.1716115 0.64542073 2741933
-9.7066164 -1.9682853 1.017572 2742043
-9.7072973 -1.9800509 0.8888942 2742046
1.8883431 -1.1864307 0.58120751 2742635
1.8932741 -1.1854137 0.58853966 2742636
1.8928388 -1.184525 0.59863794 2742637
1.8843284 -1.1838392 0.61279148 2742638
1.8855544 -1.1829216 0.62191439 2742639
1.8598803 -1.1826946 0.64438629 2742640
1.8394282 -1.1823604 0.66397059 2742641
1.8664851 -1.1807884 0.66017991 2742642
1.9055514 -1.1762439 0.67968684 2742646
2.0457535 -1.1694551 0.64514416 2742649
-9.6900883 -1.9615464 1.017966 2742759
-9.7007341 -1.9740511 0.8888666 2742762
1.8742316 -1.1877556 0.58873421 2743344
1.8525097 -1.1873621 0.60982317 2743345
1.8644345 -1.1862028 0.61334956 2743346
1.873687 -1.1850996 0.6183213 2743347
1.8686371 -1.1843418 0.63054085 2743348
1.856353 -1.1837738 0.64626086 2743349
1.8601142 -1.1828123 0.65391535 2743350
1.8584478 -1.1819919 0.66421032 2743351
1.8621304 -1.1810352 0.67187423 2743352
2.0257554 -1.1711375 0.65426302 2743358
1.9910555 -1.1703632 0.68955046 2743360
-9.6993647 -1.9571784 1.0170224 2743468
-9.703764 -1.9614072 0.97395718 2743469
-9.7099648 -1.965777 0.93072164 2743470
-9.7209482 -1.9705161 0.8870976 2743471
1.8867319 -1.1883961 0.58232361 2744060
1.8721365 -1.1878246 0.5997808 2744061
1.8778794 -1.1868039 0.60658956 2744062
1.8782483 -1.1859077 0.61614817 2744063
1.8803542 -1.1849734 0.62479514 2744064
1.8591425 -1.1846119 0.64501572 2744065
1.8844408 -1.183113 0.6420936 2744066
1.8594508 -1.1828741 0.6638633 2744067
1.9038742 -1.1791091 0.67117089 2744070
2.0523076 -1.1713657 0.64247864 2744074
2.0067458 -1.1717743 0.67289919 2744075
-9.7020674 -1.9687294 0.88831657 2744187
1.8858522 -1.1884956 0.58281398 2744776
1.8881153 -1.1875452 0.59151667 2744777
1.8921151 -1.1865566 0.59930825 2744778
1.8417085 -1.1868443 0.63474029 2744779
1.8642805 -1.1854377 0.63290232 2744780
1.8779479 -1.1842303 0.63569492 2744781
1.8584296 -1.1838409 0.65491384 2744782
1.8666486 -1.1827689 0.66039079 2744783
1.8685464 -1.1818564 0.66895682 2744784
1.903905 -1.178317 0.68074483 2744787
2.1158488 -1.1705823 0.6033991 2744789
2.0404601 -1.1717924 0.6478318 2744790
-9.7093554 -1.9575231 1.0164915 2744900
-9.7008085 -1.9607873 0.97410667 2744901
-9.7040243 -1.9649316 0.93106425 2744902
-9.6951075 -1.9681633 0.88875306 2744903
1.8831915 -1.1885546 0.58419812 2745487
1.8801241 -1.1877253 0.59565264 2745488
1.8841063 -1.1867411 0.60340953 2745489
1.8791407 -1.185967 0.61571217 2745490
1.8937548 -1.1847324 0.61807752 2745491
1.8797339 -1.1841875 0.63479573 2745492
1.8682935 -1.1835959 0.65005177 2745493
1.8675431 -1.1827472 0.65994447 2745494
1.8766501 -1.1816474 0.66504741 2745495
1.8767179 -1.180781 0.67450821 2745496
2.089453 -1.1713315 0.6153878 2745500
-9.6814728 -1.9566987 1.018097 2745611
-9.7030735 -1.9700184 0.88840687 2745614
1.8653743 -1.1887212 0.5934487 2746202
1.8817899 -1.187461 0.59469366 2746203
1.8822186 -1.1865577 0.604285 2746204
1.8719012 -1.1859112 0.61929715 2746205
1.8757801 -1.184937 0.62701899 2746206
1.8617209 -1.1844037 0.64365977 2746207
1.8394769 -1.1840932 0.66413254 2746208
1.8593434 -1.1827317 0.66384262 2746209
1.8675326 -1.1816586 0.66934359 2746210
2.0467284 -1.1713651 0.64491361 2746216
-9.7050037 -1.9638113 1.0173447 2746326
-9.7176285 -1.9764862 0.88792157 2746329
1.9007185 -1.1869535 0.57477641 2746911
1.8843809 -1.1864246 0.59321731 2746912
1.8874836 -1.1854564 0.60144991 2746913
1.8851999 -1.1846192 0.61240983 2746914
1.821221 -1.1853077 0.65431511 2746915
1.8356903 -1.1840923 0.65647531 2746916
1.8663201 -1.1824522 0.65080285 2746917
1.8862427 -1.1810653 0.65062892 2746918
1.8764707 -1.1804523 0.66491556 2746919
2.1329432 -1.1687263 0.59538037 2746924
2.0667098 -1.1697094 0.63579506 2746925
-9.6957445 -1.9681042 1.0183402 2747035
-9.702136 -1.9724892 0.97517753 2747036
-9.7063456 -1.9767148 0.93206692 2747037
-9.7063866 -1.9806257 0.88916373 2747038
1.8837773 -1.1864549 0.58354193 2747622
1.8878111 -1.1854607 0.59131527 2747623
1.8927 -1.1844459 0.59864962 2747624
1.8922111 -1.1835626 0.60872674 2747625
1.8621922 -1.1834258 0.63360178 2747626
1.866008 -1.1824555 0.64128202 2747627
1.884143 -1.1811113 0.64191842 2747628
1.8717405 -1.1805655 0.6575675 2747629
1.8619387 -1.179965 0.67179209 2747630
1.8773227 -1.178683 0.67388755 2747631
1.9017661 -1.1771355 0.67184472 2747632
1.9081323 -1.1760838 0.67843294 2747633
2.0782173 -1.1693311 0.62013745 2747635
2.040144 -1.1695287 0.64761233 2747636
-9.686039 -1.9639167 1.0185388 2747746
-9.7086306 -1.9773355 0.88872099 2747749
1.8882381 -1.1869787 0.5812701 2748334
1.8860703 -1.1861281 0.59228736 2748335
1.8793943 -1.1853911 0.60555214 2748336
1.8592674 -1.1849911 0.62553549 2748337
1.8515067 -1.1843086 0.63904035 2748338
1.8660415 -1.1830742 0.64133221 2748339
1.8662354 -1.1821986 0.65079445 2748340
1.8699763 -1.1812335 0.65849262 2748341
1.8862952 -1.179932 0.66013885 2748342
1.8863835 -1.17906 0.66964275 2748343
1.886423 -1.178193 0.67913145 2748344
2.0374467 -1.1702895 0.64889735 2748348
-9.6834621 -1.9581558 1.0181662 2748458
-9.6918478 -1.9626784 0.97494799 2748459
-9.6930761 -1.9666696 0.93206459 2748460
-9.7030706 -1.9713292 0.88857895 2748461
1.869694 -1.1883898 0.59108829 2749045
1.8843447 -1.1871654 0.59327328 2749046
1.8776642 -1.1864257 0.60653007 2749047
1.8477281 -1.1862484 0.63148618 2749048
1.8470881 -1.1853951 0.64134836 2749049
1.8553474 -1.1843263 0.64673734 2749050
1.8393703 -1.183864 0.66409481 2749051
1.8727218 -1.1821533 0.65724468 2749052
1.8719302 -1.1813078 0.66713834 2749053
1.8755999 -1.1803477 0.67486155 2749054
2.0384135 -1.1713467 0.64856023 2749059
1.9817954 -1.1712079 0.69360262 2749061
-9.6787834 -1.9537345 1.0181093 2749169
-9.7083492 -1.967648 0.88794321 2749172
1.8706121 -1.1891279 0.59071726 2749757
1.8879273 -1.1878496 0.59152508 2749758
1.8972639 -1.1867399 0.59657639 2749759
1.8557824 -1.1868088 0.62750328 2749760
1.8542666 -1.185972 0.63784927 2749761
1.8643321 -1.184859 0.64237952 2749762
1.8600365 -1.1840957 0.65403986 2749763
1.8673604 -1.1830468 0.65996188 2749764
1.871062 -1.1820875 0.66766512 2749765
1.9046252 -1.1785986 0.68033159 2749768
2.0184429 -1.1718343 0.66765839 2749772
-9.6688299 -1.9529628 1.0186236 2749881
-9.7103453 -1.9677662 0.88781559 2749884
1.8883164 -1.1887487 0.58142978 2750471
1.8888108 -1.1878366 0.59106523 2750472
1.8723569 -1.1873144 0.60936469 2750473
1.8602352 -1.1867117 0.62523979 2750474
1.8596224 -1.1858511 0.63515615 2750475
1.8589567 -1.1849961 0.64505059 2750476
1.8582382 -1.1841469 0.6549229 2750477
1.8583661 -1.1832806 0.66433543 2750478
1.8865016 -1.1799608 0.67929095 2750481
2.0484772 -1.1718929 0.64415288 2750485
-9.6818237 -1.953702 1.0179741 2750595
-9.707406 -1.9673193 0.8880266 2750598
1.8944865 -1.1886659 0.5781908 2751186
1.871035 -1.1882839 0.60028821 2751187
1.8607672 -1.1876292 0.61531359 2751188
1.8245536 -1.1875923 0.64336491 2751189
1.8506619 -1.1861143 0.6396575 2751190
1.8750433 -1.1846561 0.63705099 2751191
1.8564163 -1.184242 0.65581697 2751192
1.8601367 -1.1832858 0.66347253 2751193
2.0566564 -1.1717134 0.64047664 2751200
-9.6848192 -1.9538832 1.0178262 2751310
-9.7084103 -1.9673539 0.8879683 2751313
1.882971 -1.1889273 0.58423209 2751899
1.884341 -1.1879983 0.59338373 2751900
1.8785501 -1.187235 0.60618353 2751901
1.8619852 -1.1867319 0.62434989 2751902
1.8658428 -1.1857641 0.63202918 2751903
1.8463907 -1.1853615 0.65129745 2751904
1.8635883 -1.1840749 0.65229148 2751905
1.868223 -1.1830922 0.65954095 2751906
2.0956063 -1.1715626 0.6125254 2751912
-9.6808558 -1.9534954 1.0180514 2752023
-9.7084293 -1.9672631 0.88798827 2752026
1.9042094 -1.1884929 0.57309949 2752615
1.8781176 -1.1881641 0.59662074 2752616
1.8785384 -1.1872623 0.60619658 2752617
1.8396897 -1.187277 0.63568383 2752618
1.8524317 -1.1861092 0.6387766 2752619
1.8589123 -1.1850842 0.64507937 2752620
1.8563995 -1.1842791 0.65583402 2752621
1.8448362 -1.1837083 0.67092347 2752622
2.1086135 -1.1702677 0.61713743 2752629
-9.6878948 -1.953681 1.0177242 2752739
-9.7045164 -1.9666325 0.88827795 2752742
1.8855743 -1.1889776 0.58287317 2753330
1.8869503 -1.1880469 0.59203631 2753331
1.8820546 -1.1872613 0.60439104 2753332
1.869063 -1.1866723 0.62076145 2753333
1.8729362 -1.1857005 0.62847167 2753334
1.8445474 -1.1855092 0.6522218 2753335
1.8429011 -1.1846894 0.66247296 2753336
1.8636749 -1.1833105 0.66176152 2753337
1.8673691 -1.1823533 0.66944903 2753338
1.9009101 -1.1788722 0.68206835 2753341
2.1149557 -1.170173 0.61429012 2753344
-9.6918659 -1.9540333 1.0174998 2753454
-9.707222 -1.9590772 0.9738571 2753455
-9.7044649 -1.9627771 0.93114883 2753456
-9.7005253 -1.966388 0.88851613 2753457
1.8829254 -1.1890149 0.58425379 2754046
1.8718717 -1.1883618 0.59985328 2754047
1.8767254 -1.1873623 0.60711867 2754048
1.8574828 -1.1869214 0.62663579 2754049
1.8729436 -1.1856806 0.62845916 2754050
1.8597736 -1.1851214 0.64464289 2754051
1.8464971 -1.1845814 0.66069561 2754052
1.8448024 -1.1837665 0.67093205 2754053
1.8809675 -1.1811177 0.67241627 2754055
1.9008976 -1.179723 0.67251956 2754056
1.9154207 -1.1775861 0.68489408 2754058
2.0429287 -1.1722087 0.64664853 2754060
-9.6740112 -1.9523556 1.0184619 2754170
-9.7075624 -1.9665672 0.88810438 2754173
1.8545486 -1.1897151 0.59914017 2754755
1.8700533 -1.1884868 0.60079974 2754756
1.8704563 -1.1875893 0.61034089 2754757
1.8511999 -1.1871506 0.62983084 2754758
1.8577141 -1.1861252 0.63611674 2754759
1.8516732 -1.1854004 0.64867383 2754760
1.8599108 -1.1843333 0.65410316 2754761
1.8600427 -1.1834656 0.66352338 2754762
1.8781439 -1.1821409 0.66426122 2754763
1.8755075 -1.1813437 0.67501819 2754764
2.0936983 -1.1718025 0.61339921 2754768
2.0392387 -1.1724037 0.64831257 2754769
-9.6877394 -1.9564679 1.0180321 2754879
-9.7063522 -1.9695768 0.88845789 2754882
1.8695623 -1.1888353 0.59120023 2755471
1.8575914 -1.1882122 0.60720283 2755472
1.8695285 -1.1870556 0.61075252 2755473
1.8761194 -1.1860164 0.6171062 2755474
1.8558894 -1.1856178 0.63697004 2755475
1.8605874 -1.1846329 0.64417827 2755476
1.8715354 -1.1834912 0.64832252 2755477
1.8636006 -1.1828229 0.66172934 2755478
1.9226042 -1.1769005 0.68153113 2755483
2.1063955 -1.170817 0.60755539 2755484
2.0501382 -1.1714809 0.64334512 2755485
-9.7019825 -1.9706053 0.9320721 2755597
-9.7000341 -1.9743645 0.88931936 2755598
1.875674 -1.1877414 0.58785003 2756187
1.8894511 -1.186529 0.59052193 2756188
1.8934551 -1.1855366 0.59832084 2756189
1.8902942 -1.1847163 0.60976058 2756190
1.8638436 -1.184474 0.63283056 2756191
1.8721395 -1.1833928 0.63829297 2756192
1.8633758 -1.1827421 0.65219492 2756193
1.8662122 -1.1818023 0.66031867 2756194
1.8717723 -1.1799281 0.67659193 2756196
2.0518694 -1.1703768 0.64241773 2756201
-9.688036 -1.9667801 1.0188986 2756311
-9.7016716 -1.9795259 0.88963419 2756314
1.859672 -1.1871915 0.59611833 2756900
1.8876096 -1.1856468 0.59134972 2756901
1.864041 -1.185316 0.61330193 2756902
1.859033 -1.1845573 0.62552011 2756903
1.8619913 -1.1836082 0.63363636 2756904
1.8523802 -1.1829807 0.6479944 2756905
1.8561336 -1.1820186 0.65563297 2756906
1.8607526 -1.1810336 0.66285068 2756907
1.8779532 -1.1797081 0.66402364 2756908
2.0691197 -1.1688524 0.63452905 2756914
-9.6884508 -1.961239 1.0184227 2757024
-9.7229834 -1.9755694 0.88780814 2757027
1.8853936 -1.1876217 0.58274513 2757612
1.8894317 -1.1866288 0.59052634 2757613
1.8818742 -1.185908 0.60426325 2757614
1.870666 -1.1852862 0.61972886 2757615
1.8531051 -1.1848347 0.63822323 2757616
1.8345224 -1.1844299 0.65699345 2757617
1.8660476 -1.182772 0.65087551 2757618
1.8697886 -1.1818076 0.65857369 2757619
1.8698925 -1.1809392 0.66802204 2757620
1.8717529 -1.180027 0.67659628 2757621
2.0545859 -1.1704054 0.64119321 2757626
-9.6898479 -1.9558206 1.0178616 2757736
-9.7044783 -1.9686266 0.88851833 2757739
1.8765931 -1.1888113 0.58746505 2758322
1.8779491 -1.1878853 0.59658968 2758323
1.8819275 -1.1869018 0.60433871 2758324
1.8377395 -1.1870458 0.63655943 2758325
1.8656633 -1.1855139 0.63201147 2758326
1.860535 -1.1847644 0.6441586 2758327
1.8580263 -1.1839585 0.65492105 2758328
1.8590534 -1.1830691 0.66389626 2758329
1.8708462 -1.1819038 0.66766357 2758330
1.8925694 -1.1804689 0.66679317 2758331
-9.6980009 -1.9391246 1.0159277 2758446
-9.6977005 -1.9508103 0.88745809 2758449
1.8874366 -1.1917244 0.58217603 2759038
1.8648542 -1.1912899 0.60377884 2759039
1.8750297 -1.1901891 0.60827464 2759040
1.8655871 -1.1895068 0.62280148 2759041
1.8587323 -1.1887804 0.63588285 2759042
1.8509022 -1.1880866 0.64933294 2759043
1.8546526 -1.1871365 0.65696478 2759044
1.8727558 -1.1858474 0.65761834 2759045
1.85935 -1.1853037 0.67357737 2759046
2.1475461 -1.1734128 0.58924425 2759051
2.058533 -1.1748387 0.63994974 2759052
-9.6910686 -1.9077588 1.0135697 2759162
-9.7096882 -1.92077 0.88398659 2759165
1.8745296 -1.1975629 0.58963615 2759752
1.8820939 -1.1965363 0.59552866 2759753
1.8851919 -1.1955867 0.60375118 2759754
1.8588278 -1.1951833 0.62691462 2759755
1.862679 -1.1942356 0.63458008 2759756
1.8682874 -1.1932536 0.64137298 2759757
1.8550241 -1.1926472 0.65745521 2759758
1.8551446 -1.1917833 0.66685212 2759759
1.8597224 -1.1908294 0.67406917 2759760
1.905012 -1.1872547 0.68112075 2759763
-9.7205629 -1.8911191 0.88064593 2759879
1.8739873 -1.2030623 0.590599 2760470
1.8788878 -1.2020979 0.59786946 2760471
1.8801987 -1.2011863 0.60698956 2760472
1.8520341 -1.200732 0.63102686 2760473
1.8478266 -1.1999282 0.64269739 2760474
1.8641517 -1.1987951 0.64409238 2760475
1.8607497 -1.1979831 0.65530533 2760476
1.8509872 -1.197289 0.66952896 2760477
2.0910134 -1.1873364 0.61641824 2760483
2.1095021 -1.1860032 0.61854804 2760484
-9.6943789 -1.9029999 1.0129771 2760594
-9.7047606 -1.9076178 0.96961224 2760595
-9.6990166 -1.9111211 0.92711264 2760596
-9.6990595 -1.9150282 0.88426161 2760597
1.8958442 -1.1981219 0.57859272 2761183
1.8786007 -1.1975102 0.59746188 2761184
1.8736836 -1.1967041 0.60977578 2761185
1.8642347 -1.1959884 0.62429178 2761186
1.8680977 -1.1950397 0.6319806 2761187
1.8728225 -1.1940746 0.6392417 2761188
1.8622606 -1.1934066 0.65402043 2761189
1.8525034 -1.1927364 0.66825414 2761190
1.8642856 -1.1916387 0.67199594 2761191
1.878777 -1.1904763 0.6745373 2761192
2.0763409 -1.1815873 0.63282216 2761197
-9.718914 -1.9475639 0.88567001 2761310
1.8697948 -1.1929504 0.59154785 2761897
1.8862231 -1.1917272 0.59281522 2761898
1.8857723 -1.1908402 0.60288244 2761899
1.8505002 -1.1906945 0.63058287 2761900
1.8623739 -1.1895666 0.63417321 2761901
1.8661908 -1.1886092 0.64185458 2761902
1.8744603 -1.1875511 0.64734757 2761903
1.8791182 -1.1865721 0.65464473 2761904
1.8594179 -1.1861675 0.67366296 2761905
2.1032927 -1.1746155 0.61997432 2761911
-9.6840572 -1.9526602 1.0179205 2762021
-9.7046633 -1.9659051 0.88826901 2762024
1.8881416 -1.189057 0.58147407 2762608
1.8575767 -1.188832 0.60722893 2762609
1.8730718 -1.1875993 0.60895222 2762610
1.8636261 -1.1869318 0.62347263 2762611
1.8674878 -1.1859633 0.6311596 2762612
1.8265541 -1.1860751 0.66111749 2762613
1.8724183 -1.1840948 0.64790797 2762614
1.8474036 -1.1838523 0.66962683 2762615
1.9053543 -1.1788881 0.67995453 2762619
1.9225916 -1.1775452 0.68155932 2762620
2.0827258 -1.1721885 0.6183455 2762621
2.0601587 -1.171885 0.6388697 2762622
-9.6790771 -1.9522951 1.0181843 2762732
-9.7066545 -1.9660597 0.88814741 2762735
1.8810586 -1.1892129 0.58519405 2763324
1.8762127 -1.1884223 0.5975619 2763325
1.8828554 -1.1873806 0.60393322 2763326
1.8413426 -1.1874498 0.63479817 2763327
1.8451556 -1.1864934 0.64238834 2763328
1.8534114 -1.1854298 0.64776987 2763329
1.8562701 -1.1844947 0.65585399 2763330
