# .PCD v0.7 - Point Cloud Data file format
VERSION 0.7
FIELDS x y z intensity
SIZE 4 4 4 4
TYPE F F F F
COUNT 1 1 1 1
WIDTH 1208
HEIGHT 1
VIEWPOINT 0 0 0 1 0 0 0
POINTS 1208
DATA ascii
-5.0676384 -1.2686958 0.0088756494 352746
-5.119328 -1.2669297 0.018291499 352747
-5.1381812 -1.2477137 0.23194559 352756
-5.146647 -1.2456148 0.25397104 352757
-5.1237035 -1.2392045 0.33122367 352760
-10.436376 -1.1133223 0.66919714 352793
-10.445905 -1.1091477 0.7145009 352794
7.1587005 -1.4946767 -0.22215678 352868
1.9277908 -1.3015056 1.0233458 352873
3.1640964 -1.3544054 0.64699137 352876
3.1602309 -1.3555245 0.63363039 352877
1.9127086 -1.3294314 0.70460361 352909
1.9353638 -1.3332573 0.66538012 352912
1.948285 -1.3366122 0.6297363 352915
1.9443628 -1.3372636 0.62166041 352916
2.442163 -1.3686928 0.35549334 352918
2.4370322 -1.3695145 0.34527159 352919
2.3777285 -1.3681651 0.34987843 352921
2.3725739 -1.3689617 0.33993676 352922
2.4592826 -1.376618 0.2688823 352924
2.4537721 -1.3774403 0.25858638 352925
2.4084146 -1.376888 0.25668108 352927
2.4028513 -1.3776898 0.24660641 352928
-1.9466764 -1.3366938 -0.071540527 353371
-1.9702026 -1.3366721 -0.075524233 353372
-1.9827023 -1.3360578 -0.070820667 353373
-2.026309 -1.2649704 0.72581768 353441
-2.051559 -1.2626048 0.74804831 353444
-2.1455925 -1.259289 0.76866478 353449
-1.8858693 -1.2548728 0.86534333 353450
-1.8886995 -1.2540687 0.87393343 353451
-4.6353383 -1.2875116 0.0015945631 353452
-1.8713659 -1.2521833 0.89838713 353453
-1.8740518 -1.2513871 0.90691406 353454
-1.8489771 -1.2502797 0.92395639 353455
-1.8515514 -1.2494938 0.93238598 353456
-1.8770926 -1.2489464 0.93398869 353457
-5.0764961 -1.2799919 0.0073686754 353458
-5.1185894 -1.2782425 0.019597847 353459
-5.1306353 -1.259027 0.23488879 353468
-5.1468697 -1.2569914 0.2550056 353469
-5.1209998 -1.2505176 0.33291942 353472
-10.431809 -1.1362031 0.67165369 353505
-10.442333 -1.1320411 0.71686167 353506
3.1699605 -1.3487505 0.64483529 353588
3.1660874 -1.3498793 0.63144994 353589
1.9200138 -1.3288823 0.67219442 353624
1.9078047 -1.3307775 0.64881772 353627
1.9318376 -1.3330024 0.62743539 353628
1.8782879 -1.3316725 0.63402569 353630
1.8743868 -1.3323047 0.62625498 353631
2.3742449 -1.3635787 0.35130867 353633
2.3690984 -1.3643839 0.34138331 353634
2.4496434 -1.3714974 0.27360687 353636
2.444155 -1.3723267 0.26335421 353637
2.4190128 -1.3731064 0.25055954 353639
2.413424 -1.3739226 0.24044003 353640
-1.9240582 -1.3405919 -0.067663677 354088
-1.9412136 -1.3402845 -0.066895686 354089
-1.9647217 -1.3403101 -0.070899367 354090
-1.9724461 -1.3394662 -0.062570356 354091
-2.0394702 -1.2692676 0.72126335 354159
-2.0600801 -1.2668505 0.74536157 354162
-2.131428 -1.2633407 0.77380812 354167
-1.886867 -1.2586651 0.86536068 354168
-1.8896989 -1.257866 0.87395543 354169
-4.6440344 -1.2966708 -0.00036088214 354170
-1.9057369 -1.2564129 0.88786644 354171
-1.9084699 -1.2556081 0.89654309 354172
-1.8691007 -1.2542504 0.91812676 354173
-1.8496842 -1.2531817 0.93328911 354174
-1.8627629 -1.2525307 0.93858963 354175
-5.0871925 -1.2899969 0.0051507736 354176
-5.1331444 -1.2883676 0.016327415 354177
-5.1492267 -1.2691532 0.23123266 354186
-5.1547875 -1.2670628 0.25401089 354187
-5.1269913 -1.2605183 0.33246517 354190
-10.438082 -1.1562834 0.67294413 354223
-10.456585 -1.1520814 0.71757406 354224
7.1307688 -1.4801649 -0.21640602 354298
1.9133773 -1.2974464 1.0269445 354303
3.1699598 -1.3487567 0.64484346 354306
3.1660867 -1.3498855 0.63145804 354307
1.9100323 -1.3258036 0.70552468 354339
1.8928175 -1.3273965 0.68477947 354342
1.8969933 -1.330175 0.65399802 354345
1.8931793 -1.3308157 0.64614588 354346
2.4153831 -1.3626522 0.36838576 354348
2.4103105 -1.3634742 0.35828161 354349
2.4000328 -1.3651108 0.33813956 354351
2.3948281 -1.3659251 0.32810214 354352
2.4090159 -1.3690441 0.29504898 354354
2.4036222 -1.3698592 0.2849727 354355
2.5071886 -1.3773835 0.21619128 354356
2.4488294 -1.3749653 0.2343348 354357
2.4431694 -1.375792 0.22408572 354358
-1.9217043 -1.3404686 -0.065801241 354799
-1.9483017 -1.3406823 -0.07242091 354800
-1.9607713 -1.3401029 -0.067834765 354801
-1.9819607 -1.3399858 -0.069857463 354802
-1.9976379 -1.3395581 -0.067494832 354803
-2.0254259 -1.269002 0.72653043 354870
-2.063844 -1.2669204 0.74401534 354873
-2.1371169 -1.2634325 0.7719081 354878
-1.8783231 -1.2585371 0.86819196 354879
-1.8811427 -1.2577415 0.87674958 354880
-4.6640286 -1.2969646 -0.0067689917 354881
-1.8828558 -1.2560953 0.89510661 354882
-1.8664629 -1.2550409 0.90962827 354883
-1.8518929 -1.2540265 0.92340946 354884
-1.8525568 -1.2532201 0.93242967 354885
-1.8781 -1.2527211 0.9340409 354886
-5.083354 -1.2899569 0.0062805759 354887
-5.1235352 -1.2882632 0.019098798 354888
-5.2140818 -1.2827077 0.067659058 354891
-5.1492276 -1.2691575 0.23123993 354897
-5.152844 -1.2670527 0.25448689 354898
-5.1357675 -1.2605759 0.33047697 354901
-10.438083 -1.1562824 0.67295051 354934
-10.448609 -1.152138 0.71818626 354935
7.1210561 -1.4798685 -0.21400896 355009
1.9423155 -1.2985538 1.0191448 355014
3.1536083 -1.3481413 0.64948493 355017
3.149756 -1.3492641 0.63617051 355018
1.9462937 -1.3303441 0.66004962 355053
1.9104986 -1.3309498 0.64753777 355056
1.9066561 -1.3315953 0.63962698 355057
2.452076 -1.3647881 0.35023859 355059
2.4469233 -1.3656231 0.33997479 355060
2.413363 -1.3659184 0.33132911 355062
2.4374073 -1.3684828 0.30611151 355063
2.4603889 -1.3710121 0.28112423 355064
2.4160731 -1.3694915 0.29132661 355065
2.4106629 -1.3703091 0.28121966 355066
2.4663603 -1.3760738 0.22479144 355068
2.4606581 -1.3769066 0.21446617 355069
-1.9734225 -1.3407842 -0.077611521 355510
-1.976419 -1.3396806 -0.065596923 355511
-2.0357332 -1.2691889 0.72267812 355579
-2.067615 -1.2669772 0.74266648 355582
-2.1636691 -1.2638375 0.76301175 355587
-1.8413048 -1.2579632 0.88043386 355588
-1.8440713 -1.2571825 0.88883036 355589
-4.6230965 -1.2963519 0.0063727684 355590
-1.8399597 -1.2554864 0.90867305 355591
-1.841648 -1.2546949 0.91736078 355592
-1.8538128 -1.2540419 0.92282796 355593
-1.8563936 -1.2532591 0.93127871 355594
-1.885776 -1.2528055 0.93176758 355595
-5.0728049 -1.2898054 0.0093717724 355596
-5.0793386 -1.2877305 0.031818584 355597
-5.1928701 -1.2824638 0.073468745 355600
-5.1375823 -1.2690398 0.23410812 355606
-5.1538239 -1.2670321 0.25425717 355607
-5.1260242 -1.2604883 0.33269885 355610
-10.436097 -1.156234 0.67311466 355643
-10.453603 -1.1520394 0.71781158 355644
7.1463685 -1.4803331 -0.22025961 355718
3.1594522 -1.3481722 0.64781857 355726
3.1555924 -1.3492972 0.63447911 355727
1.9644988 -1.3312113 0.65163547 355762
1.9412047 -1.3325467 0.63285327 355765
1.9372975 -1.3332031 0.62480938 355766
2.4512575 -1.3645755 0.35065097 355768
2.4461069 -1.3654103 0.34039122 355769
2.4098828 -1.3655491 0.33311635 355771
2.4046559 -1.366367 0.32303646 355772
2.4187994 -1.3694916 0.28989837 355774
2.4133832 -1.3703102 0.27977988 355775
2.4269733 -1.3734621 0.24624567 355777
2.4213657 -1.3742812 0.2360919 355778
-1.9545349 -1.3410999 -0.077363044 356224
-1.9543829 -1.33983 -0.062967673 356225
-1.9874439 -1.3403569 -0.074136719 356226
-2.0141263 -1.2688754 0.73071563 356294
-2.0760117 -1.2672302 0.73959345 356297
-2.130934 -1.2643819 0.763183 356301
-1.9417639 -1.2604588 0.83737183 356302
-1.8706652 -1.2585051 0.87067974 356303
-1.873474 -1.2577128 0.87920427 356304
-4.6268325 -1.2966361 0.0051231612 356305
-1.8732588 -1.2560465 0.89809793 356306
-1.8759475 -1.255255 0.90663362 356307
-1.8757306 -1.2544252 0.91606021 356308
-1.8438786 -1.2531942 0.93500757 356309
-1.8521572 -1.2524872 0.94170696 356310
-5.0727324 -1.2900599 0.00934448 356311
-5.1167445 -1.2884169 0.021011258 356312
-5.1326556 -1.2692649 0.23527452 356321
-5.1459761 -1.2672392 0.25610563 356322
-5.117178 -1.2606987 0.33466747 356325
-10.439021 -1.1567842 0.67285109 356358
-10.457525 -1.1525832 0.71748531 356359
7.1618986 -1.4808722 -0.22408348 356433
1.9144101 -1.2973762 1.0266625 356438
3.1517644 -1.3478659 0.6500023 356441
3.1479144 -1.3489881 0.63669628 356442
1.9301647 -1.3267627 0.69654018 356474
1.9073914 -1.3280797 0.67804927 356477
1.9168831 -1.3311765 0.64449292 356480
1.9166234 -1.332028 0.63481492 356481
2.4575269 -1.3649321 0.34755376 356483
2.4523625 -1.3657691 0.33726668 356484
2.3823192 -1.3639169 0.34720439 356486
2.3771544 -1.364725 0.33724421 356487
2.5091567 -1.3737676 0.25567991 356488
2.4532473 -1.371572 0.27172813 356489
2.447751 -1.3724028 0.26146001 356490
2.4164531 -1.3728054 0.25197676 356492
2.4108706 -1.3736207 0.24186864 356493
-1.9498066 -1.3408464 -0.073672399 356927
-1.9646523 -1.3403962 -0.070913568 356928
-1.9818907 -1.340065 -0.069879495 356929
-1.9975679 -1.3396382 -0.067516856 356930
-2.0216141 -1.2690248 0.72791219 356997
-2.0694227 -1.2671183 0.74196404 357000
-2.1843247 -1.2662259 0.73397559 357003
-2.135664 -1.2644643 0.76157463 357004
-1.9379686 -1.2604046 0.83864516 357005
-1.8811054 -1.25867 0.86723 357006
-1.8839291 -1.2578735 0.87579989 357007
-4.6125479 -1.2964429 0.0097074639 357008
-1.8303521 -1.2554502 0.91166139 357009
-1.8329819 -1.254676 0.92001051 357010
-1.8575634 -1.2541909 0.92163038 357011
-1.8601493 -1.2534069 0.93009776 357012
-1.8789928 -1.2528234 0.93373555 357013
-5.0794477 -1.2901541 0.0073820697 357014
-5.1244292 -1.2885195 0.018801652 357015
-5.1375079 -1.2693168 0.234083 357024
-5.1537499 -1.2673106 0.25423211 357025
-5.1142497 -1.2606944 0.33533445 357028
-10.440016 -1.1568034 0.67277253 357061
-10.443564 -1.1527097 0.71854717 357062
7.1240692 -1.4794711 -0.2147368 357136
3.1565852 -1.3480314 0.64865744 357144
3.1527293 -1.3491554 0.63533056 357145
1.9493296 -1.3277749 0.68800366 357177
1.9300679 -1.3293114 0.6675868 357180
1.9051849 -1.3305094 0.65011472 357183
1.9013538 -1.3311532 0.64222741 357184
2.4539604 -1.3647151 0.3493436 357186
2.4488039 -1.3655511 0.3390722 357187
2.4214604 -1.3662175 0.32723016 357189
2.4375014 -1.3683075 0.30610213 357190
2.4613683 -1.3708881 0.28065282 357191
2.4559109 -1.3717227 0.27034938 357192
2.4504082 -1.3725547 0.26006973 357193
2.4647009 -1.3757873 0.22573692 357195
2.459003 -1.3766198 0.21541925 357196
2.4378951 -1.3776681 0.20023578 357198
-1.9442801 -1.340583 -0.069350868 357642
-1.9583169 -1.3400922 -0.066004597 357643
-1.9834625 -1.340191 -0.071077295 357644
-2.0450094 -1.2695042 0.71916318 357712
-2.0647054 -1.2670646 0.74367326 357715
-2.1645298 -1.2639971 0.76268548 357720
-1.8867888 -1.2587839 0.86536437 357721
-1.8896208 -1.257985 0.87395912 357722
-4.6572828 -1.2971562 -0.0046342281 357723
-1.8951713 -1.2563857 0.89118516 357724
-1.8826145 -1.2553773 0.90457177 357725
-1.8728466 -1.2544185 0.91695815 357726
-1.8543926 -1.2533592 0.93184823 357727
-1.8780215 -1.2528373 0.93403721 357728
-5.0679173 -1.2900879 0.010766265 357729
-5.1176891 -1.2885137 0.02075368 357730
-5.1413794 -1.2694159 0.23314536 357739
-5.1479039 -1.267336 0.25565538 357740
-5.1347132 -1.2608883 0.33069518 357743
-10.417078 -1.1570765 0.67462879 357776
-10.435575 -1.1528836 0.71916771 357777
7.1793818 -1.4814365 -0.22836737 357851
3.1777365 -1.348852 0.64265692 357859
3.1805751 -1.3502486 0.62729979 357860
1.9292678 -1.3267018 0.69696528 357892
1.92463 -1.3290112 0.67010158 357895
1.8718522 -1.3286346 0.66606212 357898
1.8680916 -1.3292665 0.65831959 357899
2.4476955 -1.3643513 0.35244215 357901
2.4425526 -1.365185 0.34219795 357902
2.3476534 -1.3618562 0.36494374 357904
2.342567 -1.3626523 0.35513431 357905
2.462255 -1.3709383 0.28018987 357906
2.4567955 -1.3717732 0.26988262 357907
2.4512911 -1.3726054 0.25959918 357908
2.4190993 -1.3729566 0.25056297 357910
2.4135108 -1.3737731 0.24044344 357911
-1.9466416 -1.3407143 -0.071195945 358348
-1.9591057 -1.3401364 -0.066616558 358349
-1.9826685 -1.3401494 -0.070470013 358350
-2.0197272 -1.2690206 0.72862995 358418
-2.0637634 -1.2670493 0.74401098 358421
-2.1559966 -1.2638645 0.7655459 358426
-1.8668506 -1.2584803 0.87195295 358427
-1.8696539 -1.2576895 0.88046092 358428
-4.6268148 -1.2967196 0.0051415078 358429
-1.8846827 -1.25624 0.8944996 358430
-1.887387 -1.2554438 0.90308499 358431
-1.8824055 -1.2545462 0.9140268 358432
-1.8342887 -1.253104 0.93791485 358433
-1.8550158 -1.2525547 0.94087064 358434
-5.0746341 -1.2901723 0.008801477 358435
-5.1215315 -1.2885622 0.019647369 358436
-5.1374936 -1.2693899 0.23409918 358445
-5.1508188 -1.267362 0.25495151 358446
-5.1239867 -1.2608262 0.33313331 358449
-10.441996 -1.1569167 0.6726265 358482
-10.448536 -1.1528002 0.7181825 358483
7.1706495 -1.4811164 -0.22621645 358557
3.1719699 -1.3486235 0.64429212 358565
3.1680944 -1.3497531 0.63089836 358566
1.9164729 -1.3285619 0.67387354 358601
1.9087912 -1.3307071 0.64838886 358604
1.9049525 -1.3313521 0.64048588 358605
2.43785 -1.3637807 0.3573114 358607
2.4327285 -1.364611 0.34710988 358608
2.379668 -1.3637433 0.34858459 358610
2.3745096 -1.3645508 0.33863607 358611
2.5357306 -1.3753452 0.24183391 358612
1.8880202 -1.3373493 0.56995529 358613
1.8838383 -1.3379816 0.56214297 358614
1.9051895 -1.3410885 0.53034014 358616
1.900834 -1.341725 0.52245337 358617
1.9085612 -1.3440418 0.49744877 358619
1.9040616 -1.3446776 0.4895474 358620
-1.9466403 -1.3407151 -0.071196996 359057
-1.974118 -1.340955 -0.078233495 359058
-1.9842528 -1.3402357 -0.071686864 359059
-2.0234711 -1.269094 0.72722638 359127
-2.0769339 -1.2672865 0.73927224 359130
-2.1413281 -1.2645903 0.75965798 359134
-1.9569135 -1.2607337 0.83230269 359135
-1.8677986 -1.2584963 0.87163818 359136
-1.8706033 -1.2577051 0.88015032 359137
-4.6458549 -1.2969984 -0.00096971297 359138
-1.8637064 -1.2559471 0.90112871 359139
-1.8663819 -1.2551594 0.90962303 359140
-1.8728441 -1.2544215 0.91695654 359141
-1.8754504 -1.2536312 0.92549044 359142
-1.8655583 -1.2526865 0.93773741 359143
-5.0823112 -1.2902679 0.0065559172 359144
-5.1301789 -1.2886659 0.017158654 359145
-5.1540012 -1.2695231 0.23004147 359154
-5.1585951 -1.267424 0.25307518 359155
-5.1337361 -1.260891 0.33091524 359158
-10.432027 -1.1569943 0.67342639 359191
-10.438563 -1.1528817 0.71893907 359192
7.1396322 -1.4814832 -0.21843065 359266
1.9192959 -1.29792 1.0253985 359271
3.1768193 -1.3494536 0.64297628 359274
3.1729381 -1.350584 0.62956154 359275
1.9548506 -1.328445 0.68557858 359307
1.9219584 -1.3292353 0.67137837 359310
1.9124415 -1.3312827 0.64668471 359313
1.9085953 -1.331928 0.63876599 359314
2.4566948 -1.3653482 0.34804502 359316
2.4515324 -1.3661839 0.33776185 359317
2.3574831 -1.3628942 0.3599737 359319
2.3523743 -1.3636925 0.35012159 359320
2.4524271 -1.3719851 0.2722427 359322
2.446933 -1.3728144 0.26197824 359323
2.4375641 -1.3745739 0.24056649 359325
2.4319313 -1.3753955 0.23036684 359326
-1.9653653 -1.3400162 -0.07157515 359769
-1.978642 -1.3394687 -0.067498244 359770
-2.0196676 -1.2685578 0.7285623 359838
-2.0834613 -1.2669265 0.7368353 359841
-2.1265488 -1.2629174 0.77533066 359846
-1.8667921 -1.2580522 0.87188882 359847
-1.8695954 -1.257261 0.88039678 359848
-4.6229362 -1.2956371 0.0062375427 359849
-1.8693696 -1.2555979 0.89925742 359850
-1.872053 -1.2548074 0.90777647 359851
-1.849843 -1.2536938 0.92392761 359852
-1.8524188 -1.2529123 0.93236172 359853
-1.8827547 -1.2524678 0.93254846 359854
-5.074563 -1.2890491 0.0086654751 359855
-5.1195383 -1.2874074 0.020063169 359856
-5.1393657 -1.2682718 0.23348479 359865
-5.1565809 -1.2662687 0.25340757 359866
-5.1170907 -1.2596571 0.3345488 359869
-10.445897 -1.154637 0.67205292 359902
-10.448451 -1.1505477 0.71792918 359903
7.1716046 -1.4864839 -0.22597589 359977
3.1777618 -1.3511705 0.64285517 359985
3.1738794 -1.3522992 0.62943602 359986
1.920187 -1.3275838 0.70114869 360018
1.9128842 -1.3297286 0.67566073 360021
1.908829 -1.3320689 0.64849871 360024
1.9049904 -1.3327109 0.6405955 360025
2.4656332 -1.3671581 0.34373489 360027
2.4604514 -1.3679942 0.3334125 360028
2.3512459 -1.3637556 0.36326578 360030
2.3461516 -1.3645489 0.35344049 360031
1.8868946 -1.3377404 0.58066666 360032
2.4144373 -1.3709438 0.29239243 360033
2.4566126 -1.3746954 0.25692731 360034
2.4993989 -1.3785323 0.22059894 360035
2.3919485 -1.3729895 0.26550579 360036
2.386425 -1.3737922 0.25550401 360037
-1.9489204 -1.3392763 -0.073204167 360476
-1.963763 -1.3388153 -0.07044971 360477
-1.9802059 -1.3384296 -0.068812393 360478
-2.0149641 -1.2673249 0.73021573 360546
-2.0730898 -1.2655681 0.74045527 360549
-2.1804469 -1.2644658 0.73511732 360552
-2.123682 -1.2616701 0.77617913 360554
-1.8487333 -1.2567263 0.87775898 360555
-1.8515108 -1.2559408 0.88618839 360556
-4.6514564 -1.2934673 -0.003155991 360557
-1.8817433 -1.2546974 0.89524579 360558
-1.8844438 -1.2539004 0.90381861 360559
-1.8565147 -1.2527226 0.92178369 360560
-1.8590991 -1.251937 0.93024671 360561
-1.8846509 -1.2514176 0.93188524 360562
-5.0773964 -1.2862747 0.0075756023 360563
-5.1166096 -1.2845454 0.020642433 360564
-5.2109876 -1.278973 0.068052843 360567
-5.1422324 -1.2654504 0.23251756 360573
-5.1536183 -1.2633978 0.25385898 360574
-5.1180196 -1.2568324 0.33407691 360577
-10.439831 -1.1489546 0.6720255 360610
-10.441385 -1.1448742 0.71795148 360611
7.1463194 -1.4893427 -0.21943541 360685
3.1671634 -1.3523976 0.6459915 360693
3.1632943 -1.3535202 0.63261819 360694
1.9247333 -1.3288108 0.69919044 360726
1.9124191 -1.3332473 0.64685273 360732
1.908573 -1.3338884 0.6389336 360733
2.4208579 -1.3657907 0.36597067 360735
2.4157739 -1.3666081 0.3558425 360736
2.409919 -1.3685035 0.33338135 360738
2.4046922 -1.3693146 0.32330084 360739
2.3879244 -1.3705467 0.3064692 360741
2.3825803 -1.3713475 0.29648441 360742
2.4313948 -1.3767152 0.24412596 360744
2.4257767 -1.3775285 0.2339524 360745
-1.9347283 -1.3374088 -0.062242042 361190
-1.9629554 -1.3376602 -0.069944628 361191
-1.9841523 -1.337516 -0.07195951 361192
-2.0327361 -1.2665082 0.72344309 361260
-2.069308 -1.2643394 0.74169838 361263
-2.1397789 -1.2607096 0.77065969 361268
-1.9113749 -1.2565591 0.85694236 361269
-1.914242 -1.2557468 0.8656441 361270
-4.6352315 -1.2906984 0.0018060749 361271
-1.8493108 -1.2532222 0.90539443 361272
-1.8519669 -1.2524369 0.91382617 361273
-1.8612777 -1.2517308 0.92021716 361274
-1.8341937 -1.2506014 0.93766081 361275
-1.8999702 -1.2505234 0.92722541 361276
-5.0802336 -1.2835208 0.0064796624 361277
-5.1290588 -1.2818675 0.01679197 361278
-5.2090154 -1.2760998 0.068320654 361281
-5.1421895 -1.2626325 0.2322609 361287
-5.1496868 -1.2605504 0.25453985 361288
-5.1267524 -1.2540712 0.33182499 361291
-10.440742 -1.1432871 0.67143798 361324
-10.445287 -1.1391804 0.71714067 361325
1.9366577 -1.300645 1.020911 361404
3.1691029 -1.3525991 0.64547712 361407
3.1652315 -1.3537226 0.6320954 361408
1.934782 -1.3294361 0.69473529 361440
1.9237664 -1.3313888 0.67073369 361443
1.9043283 -1.3328578 0.6507557 361446
1.9004995 -1.3334961 0.6428718 361447
1.9285439 -1.3368766 0.60944873 361449
1.9245336 -1.3375214 0.60145974 361450
2.3841484 -1.3670458 0.34658295 361452
2.3789799 -1.3678478 0.33661452 361453
2.5277953 -1.3780973 0.24628069 361454
2.4886246 -1.3768722 0.25339016 361455
2.4830463 -1.3777081 0.24296789 361456
2.4805224 -1.3799267 0.21742305 361458
2.4747868 -1.380757 0.2070362 361459
2.4179077 -1.3794736 0.21175154 361461
-1.9684658 -1.3378931 -0.074218139 361908
-1.9722394 -1.3368297 -0.062832817 361909
-2.0252261 -1.2663013 0.72625458 361977
-2.0739927 -1.2643425 0.74001104 361980
-2.1677129 -1.2620004 0.75035375 361984
-1.9880811 -1.2584478 0.82154632 361985
-1.8695832 -1.2559053 0.87075943 361986
-1.8723906 -1.2551098 0.87927943 361987
-1.905627 -1.2547134 0.87803161 361988
-1.8702663 -1.2534202 0.89876777 361989
-1.872951 -1.2526262 0.90729076 361990
-1.8383149 -1.2513896 0.92725974 361991
-1.8408753 -1.2506099 0.93564373 361992
-1.8673618 -1.2500937 0.93691695 361993
-5.0638952 -1.2831683 0.01124307 361994
-5.0704179 -1.2810889 0.033651613 361995
-5.1246881 -1.2623346 0.23654924 362004
-5.1545253 -1.2603947 0.25335804 362005
-5.1160045 -1.2538339 0.33425599 362008
-10.420781 -1.1430593 0.67300636 362041
-10.443269 -1.1388067 0.7172569 362042
7.1356668 -1.4892278 -0.2167373 362116
3.1892958 -1.353411 0.6397686 362124
3.1853988 -1.3545419 0.6262992 362125
1.9301164 -1.3317471 0.66781563 362160
1.9007293 -1.3326532 0.65249515 362163
1.8969079 -1.3332902 0.64462692 362164
2.5139754 -1.3713806 0.31998032 362166
2.5086882 -1.3722308 0.30944762 362167
2.4081628 -1.3685 0.33433366 362169
2.2822757 -1.361966 0.38656834 362170
1.9108043 -1.340246 0.56830984 362171
2.4170916 -1.372453 0.29114005 362172
2.4530926 -1.3758458 0.2589536 362173
2.4897337 -1.3793199 0.22595721 362174
2.3858147 -1.3739337 0.26899114 362175
2.3803062 -1.3747313 0.25901577 362176
-1.9441526 -1.3378807 -0.069598302 362619
-1.9692513 -1.3379592 -0.074814126 362620
-1.9865054 -1.3376033 -0.073761545 362621
-1.9990163 -1.3369884 -0.068961732 362622
-2.019604 -1.2662157 0.72837383 362689
-2.0655208 -1.2642173 0.74307245 362692
-2.1260586 -1.2613976 0.76454186 362696
-1.9681692 -1.2581745 0.82823908 362697
-1.8676804 -1.2558913 0.87140167 362698
-1.8704851 -1.2550964 0.87991345 362699
-4.638062 -1.2906054 0.00089732849 362700
-1.8788427 -1.2535415 0.89606893 362701
-1.8633997 -1.2525212 0.91027868 362702
-1.8478705 -1.2515149 0.92434239 362703
-1.8504435 -1.2507312 0.93276787 362704
-1.877901 -1.2502218 0.93379784 362705
-5.0898037 -1.2834766 0.0036786473 362706
-5.1319146 -1.281749 0.015968116 362707
-5.2167044 -1.276017 0.06621404 362710
-5.1489601 -1.2625232 0.2305948 362716
-5.1603537 -1.2604611 0.25196514 362717
-5.1345263 -1.2539539 0.33005545 362720
-10.44171 -1.1429328 0.67133474 362753
-10.458221 -1.1387225 0.71613139 362754
7.1473851 -1.4880728 -0.21971929 362828
3.1845477 -1.3525202 0.64108288 362836
3.1806569 -1.3536502 0.62763447 362837
1.9193374 -1.328177 0.70164675 362869
1.9165732 -1.330572 0.67407483 362872
1.9197024 -1.3333281 0.64341819 362875
1.9158411 -1.3339728 0.63546783 362876
2.428098 -1.3657897 0.36243731 362878
2.4229984 -1.3666109 0.35227805 362879
2.381542 -1.3663732 0.34792674 362881
2.3763797 -1.3671756 0.33796996 362882
2.407434 -1.3713304 0.29622853 362884
2.4020443 -1.3721393 0.28615943 362885
2.4130578 -1.3751326 0.25415817 362887
2.4074841 -1.3759409 0.24406469 362888
-1.9417468 -1.3382101 -0.067717254 363334
-1.9715784 -1.3385483 -0.076611638 363335
-1.9729842 -1.3373586 -0.063388377 363336
-1.9009988 -1.2707205 0.7029174 363397
-2.0242448 -1.2667726 0.72665763 363404
-2.0692439 -1.2647629 0.74175662 363407
-2.1402173 -1.2621075 0.75974953 363411
-1.9406369 -1.2582326 0.83749753 363412
-1.8847283 -1.2565719 0.86578697 363413
-1.8875575 -1.2557707 0.87437314 363414
-4.6085134 -1.2912734 0.010452284 363415
-1.8788022 -1.2539817 0.8961041 363416
-1.8814987 -1.2531848 0.90466434 363417
-1.8401822 -1.2518557 0.92672241 363418
-1.8427452 -1.2510756 0.93511462 363419
-1.8769021 -1.250651 0.93411779 363420
-5.0849729 -1.2845883 0.0051704864 363421
-5.0915222 -1.2825017 0.027670845 363422
-5.1401892 -1.2636409 0.23283274 363431
-5.1525455 -1.2615911 0.25393081 363432
-5.1227942 -1.2550673 0.33280629 363435
-10.424752 -1.1454316 0.67287481 363468
-10.439264 -1.1412482 0.71774971 363469
7.1493907 -1.4841743 -0.22055362 363543
3.1538155 -1.3495641 0.64964807 363551
3.1499631 -1.350685 0.63633347 363552
1.9574852 -1.32663 0.71362662 363581
1.9093266 -1.3266057 0.70602959 363584
1.9791433 -1.3330023 0.64505345 363587
1.8872902 -1.3304577 0.65883553 363590
1.8834974 -1.331093 0.65102631 363591
2.4585583 -1.3662416 0.34726271 363593
2.4533923 -1.3670763 0.33697155 363594
2.3628926 -1.3639686 0.35734713 363596
2.3577721 -1.3647672 0.34747177 363597
2.4683988 -1.3737447 0.26395923 363599
2.4628677 -1.374578 0.25362566 363600
2.442023 -1.3756328 0.23828202 363602
2.4363799 -1.3764542 0.22806317 363603
-1.9480578 -1.3396853 -0.072543561 364048
-1.9589469 -1.3390148 -0.066735238 364049
-1.973788 -1.3385501 -0.063902318 364050
-2.082428 -1.2661989 0.73711717 364121
-2.1492081 -1.262537 0.76764172 364126
-1.8629035 -1.2573541 0.87309504 364127
-1.8657014 -1.2565634 0.88158631 364128
-4.6542463 -1.2945375 -0.0039907228 364129
-1.8835797 -1.2551476 0.8946867 364130
-1.8862829 -1.2543502 0.90326786 364131
-1.8755645 -1.2533832 0.91596448 364132
-1.8350973 -1.2520634 0.93751448 364133
-1.8539085 -1.2514799 0.94104284 364134
-5.0725331 -1.2873418 0.009066334 364135
-5.1213493 -1.2857281 0.019348241 364136
-5.2138176 -1.2801507 0.067350358 364139
-5.1625614 -1.2667313 0.22759342 364145
-5.1661925 -1.2646194 0.25089929 364146
-5.1267323 -1.258008 0.33216879 364149
-10.431811 -1.1512756 0.67282516 364182
-10.445328 -1.1471056 0.71780688 364183
7.1348972 -1.4798878 -0.2172728 364257
1.9280735 -1.2978728 1.0230764 364262
3.1932626 -1.349466 0.63834602 364265
3.1893609 -1.3506036 0.62486035 364266
1.9193799 -1.3261747 0.70148551 364298
1.9021112 -1.3277787 0.6806215 364301
1.9152405 -1.3310732 0.64541197 364304
1.9113888 -1.3317205 0.63748163 364305
2.4496329 -1.3644702 0.35160199 364307
2.4444864 -1.3653048 0.34134993 364308
2.4100487 -1.365548 0.33318135 364310
2.27617 -1.358705 0.38954657 364311
2.4597473 -1.370796 0.28162169 364312
2.454294 -1.3716301 0.27132595 364313
2.4487956 -1.3724614 0.26105395 364314
2.4674819 -1.3759652 0.22434942 364316
2.4617774 -1.3767989 0.2140203 364317
-1.9480648 -1.3408055 -0.072425723 364762
-1.9668559 -1.3405713 -0.072730616 364763
-1.9793453 -1.339983 -0.068038844 364764
-2.0167744 -1.2689586 0.72967994 364832
-2.0523293 -1.2668389 0.74806958 364835
-2.1383462 -1.2645336 0.76062167 364839
-1.9197998 -1.260141 0.84470034 364840
-1.8875946 -1.2587904 0.86504912 364841
-1.8904278 -1.257991 0.87364787 364842
-4.6323762 -1.2967945 0.0032799435 364843
-1.8826338 -1.2562032 0.89510149 364844
-1.8757883 -1.2552776 0.9066509 364845
-1.8698356 -1.2543719 0.91783595 364846
-1.8427626 -1.2532035 0.93531406 364847
-1.8730861 -1.252769 0.93545949 364848
-5.0907989 -1.2903576 0.0039984495 364849
-5.1357951 -1.2887183 0.015467364 364850
-5.2128854 -1.2830139 0.067883976 364853
-5.1625929 -1.269574 0.22786058 364859
-5.1681685 -1.2674781 0.25069782 364860
-5.1160378 -1.2607633 0.33487311 364863
-10.441851 -1.1568753 0.67253637 364896
-10.4454 -1.1527795 0.71831948 364897
7.140728 -1.4793046 -0.21877246 364971
1.9386884 -1.2980658 1.0202016 364976
3.1509655 -1.3474742 0.65031993 364979
3.1471167 -1.3485968 0.63701814 364980
1.9175569 -1.3258736 0.70228738 365012
1.9274948 -1.3289644 0.66887015 365015
1.8864119 -1.3292532 0.65919203 365018
1.9581389 -1.3341614 0.61485177 365019
1.9322275 -1.3344547 0.6074906 365021
1.9282094 -1.3351067 0.59948659 365022
2.4118292 -1.3653949 0.33225483 365024
2.4065983 -1.3662144 0.32216725 365025
2.4066029 -1.3684858 0.29646924 365027
2.4417481 -1.3717701 0.26479417 365028
2.47578 -1.3750262 0.233264 365029
2.428019 -1.3732582 0.24581587 365030
2.4224095 -1.3740786 0.23565823 365031
-1.9520074 -1.3412601 -0.075473391 365479
-1.9565887 -1.3402497 -0.064756542 365480
-1.9833146 -1.3404375 -0.071052045 365481
-2.0158432 -1.269182 0.73005706 365549
-2.0702109 -1.2674062 0.74166662 365552
-2.1832271 -1.2664951 0.73434258 365555
-2.1387944 -1.263842 0.77129233 365557
-1.891397 -1.2590752 0.86381924 365558
-1.8942357 -1.2582746 0.87243462 365559
-4.6638041 -1.297793 -0.0067486912 365560
-1.862617 -1.2561455 0.9014554 365561
-1.8500159 -1.2551485 0.91470104 365562
-1.8239523 -1.2539853 0.93192852 365563
-1.8734002 -1.2538191 0.9260934 365564
-1.9171833 -1.2535431 0.92238587 365565
-5.1071253 -1.2911468 -0.00071389897 365566
-5.1492591 -1.2894725 0.011655835 365567
-5.1499791 -1.2700737 0.23102108 365576
-5.1613741 -1.2680272 0.25239703 365577
-5.1277485 -1.2614311 0.33227038 365580
-10.401002 -1.1583439 0.67593038 365613
-10.420491 -1.1541514 0.72032404 365614
7.1620684 -1.4801242 -0.2240158 365688
3.1778758 -1.3485476 0.6426993 365696
3.1739933 -1.3496802 0.62928051 365697
1.9257571 -1.3263302 0.69863605 365729
1.9247675 -1.3288352 0.67014301 365732
1.9206394 -1.3311929 0.64282805 365735
1.9167762 -1.3318427 0.63487422 365736
2.5042324 -1.3673748 0.32459193 365738
2.4989665 -1.3682293 0.31410271 365739
2.363801 -1.3625897 0.35680741 365741
2.3586783 -1.3633924 0.34692845 365742
2.4641671 -1.3708251 0.27930862 365743
2.4127777 -1.3688861 0.29322311 365744
2.4073758 -1.3697037 0.28313142 365745
2.4315195 -1.3735027 0.24392171 365747
2.4259012 -1.3743244 0.23374885 365748
-1.9425652 -1.3407435 -0.068081148 366188
-1.9621276 -1.3405567 -0.06902121 366189
-1.9777725 -1.340143 -0.06678167 366190
-1.992641 -1.3396771 -0.063831724 366191
-2.0214686 -1.2692863 0.72796732 366258
-2.0617504 -1.2672491 0.74472642 366261
-2.145438 -1.2639418 0.76908112 366266
-1.8942524 -1.2591141 0.86289191 366267
-1.8970953 -1.2583123 0.87151963 366268
-4.6238241 -1.297199 0.0060967258 366269
-1.8702515 -1.2562482 0.8990584 366270
-1.853842 -1.2551957 0.91352612 366271
-1.8746278 -1.254654 0.91640955 366272
-1.8772367 -1.253863 0.92495173 366273
-1.8702227 -1.2529519 0.93635273 366274
-5.0745006 -1.2907395 0.0088399919 366275
-5.1262026 -1.2891897 0.018303767 366276
-5.2235117 -1.2837148 0.065054469 366279
-5.1480441 -1.2700413 0.23151217 366285
-5.1594372 -1.2679954 0.25287959 366286
-5.1219053 -1.2613763 0.33361438 366289
-10.433902 -1.158071 0.67330015 366322
-10.439443 -1.1539639 0.7188971 366323
7.1174326 -1.4785861 -0.21296275 366397
3.1721094 -1.3483471 0.64438355 366405
3.1682341 -1.3494781 0.63098985 366406
1.9193298 -1.3285618 0.67270535 366441
1.9386593 -1.3322288 0.63425463 366444
1.9347579 -1.3328853 0.62622249 366445
2.4952822 -1.3668953 0.32906771 366447
2.490036 -1.3677471 0.31861749 366448
2.3958161 -1.3645124 0.3404977 366450
2.3906212 -1.3653268 0.33047971 366451
2.4271359 -1.3732696 0.2463575 366456
2.4215286 -1.3740902 0.2362038 366457
-1.9637063 -1.3406966 -0.070197649 366895
-1.9753925 -1.3400679 -0.064911693 366896
-2.0702169 -1.2674268 0.74172431 366967
-2.1615524 -1.2642218 0.76372045 366972
-1.8743141 -1.2588273 0.86952448 366973
-1.8771284 -1.2580333 0.87806547 366974
-4.6447682 -1.2975578 -0.0005804479 366975
-1.8931321 -1.2565918 0.89186883 366976
-1.8748446 -1.2555033 0.90703046 366977
-1.8583745 -1.2544566 0.92143506 366978
-1.8801072 -1.2539186 0.92412823 366979
-1.8730969 -1.2530061 0.93554169 366980
-5.0812173 -1.2908742 0.00691958 366981
-5.1223569 -1.2891984 0.019452984 366982
-5.2264042 -1.2837967 0.06430614 366985
-5.1480427 -1.2700872 0.23155504 366991
-5.1604075 -1.2680479 0.25268799 366992
-5.1248293 -1.2614372 0.33299181 366995
-10.437888 -1.1580799 0.67301732 367028
-10.438444 -1.1540049 0.71901023 367029
7.1310196 -1.4790568 -0.21631575 367103
1.9232452 -1.2975091 1.02442 367108
3.1692264 -1.3482292 0.6451968 367111
3.165355 -1.349359 0.63181567 367112
1.9184641 -1.32596 0.70193708 367144
1.9419942 -1.3297968 0.6622197 367147
1.9071282 -1.3304552 0.6493358 367150
1.9032935 -1.3311005 0.64144063 367151
2.5203481 -1.368331 0.31666619 367153
2.5150471 -1.3691916 0.30610684 367154
2.4073777 -1.3651881 0.33458582 367156
2.4021568 -1.3660065 0.32451755 367157
2.4587066 -1.3716925 0.26903734 367159
2.4531982 -1.3725266 0.25874633 367160
2.3885498 -1.3708732 0.26735961 367162
2.3830349 -1.3716803 0.25737354 367163
-1.9652857 -1.3407795 -0.071425118 367603
-1.9785625 -1.3402359 -0.067347966 367604
-1.9926381 -1.3397272 -0.063790202 367605
-1.9028771 -1.2732077 0.70244372 367665
-2.0391679 -1.2668672 0.75288749 367675
-2.1558633 -1.2641313 0.76562345 367680
-1.857224 -1.2585635 0.87516797 367681
-1.8600138 -1.2577764 0.88363469 367682
-4.6590486 -1.2977656 -0.0051674386 367683
-1.8549944 -1.2560518 0.90391928 367684
-1.8576584 -1.2552673 0.91237611 367685
-1.8564613 -1.2544312 0.92201686 367686
-1.8590459 -1.2536472 0.93048 367687
-1.8673446 -1.2529345 0.93724591 367688
-5.0860152 -1.2909321 0.0055122245 367689
-5.1252394 -1.289232 0.018619297 367690
-5.1363883 -1.2699956 0.23441422 367699
-5.1536016 -1.2679975 0.25432453 367700
-5.1316538 -1.2614814 0.33143544 367703
-10.427919 -1.158154 0.67381424 367736
-10.438443 -1.1540126 0.71900642 367737
7.1698494 -1.4804205 -0.22583051 367811
3.1625104 -1.3479612 0.64715046 367819
3.1586473 -1.349089 0.63379854 367820
1.9303328 -1.326596 0.69668496 367852
1.9574183 -1.3306447 0.65513653 367855
1.8900239 -1.3295007 0.65756887 367858
1.8862253 -1.3301401 0.64974815 367859
2.4684422 -1.3653544 0.34239015 367861
2.4632545 -1.3661971 0.33205643 367862
2.3949418 -1.364465 0.34099215 367864
2.3897491 -1.3652793 0.33097798 367865
2.4569542 -1.3715986 0.27001438 367867
2.4514499 -1.3724325 0.25973096 367868
2.4631076 -1.3755043 0.22682309 367870
2.4574142 -1.3763378 0.21651311 367871
-1.9417613 -1.3408172 -0.067381717 368316
-1.9605309 -1.3405879 -0.067713961 368317
-1.9825132 -1.3405176 -0.070344642 368318
-2.0298803 -1.2695166 0.72489154 368386
-2.0617352 -1.2673159 0.74480623 368389
-2.1869998 -1.2666221 0.73313183 368392
-2.1340466 -1.2638272 0.77297544 368394
-1.8942374 -1.2591714 0.86297131 368395
-1.8970802 -1.258369 0.87159896 368396
-4.6323771 -1.2974681 0.003427628 368397
-1.8750037 -1.2563704 0.89763075 368398
-1.8776951 -1.2555776 0.90617466 368399
-1.8631408 -1.2545546 0.92000562 368400
-1.8657343 -1.2537676 0.92849779 368401
-1.8903366 -1.2532556 0.93045199 368402
-5.0792837 -1.2909466 0.0075168288 368403
-5.125226 -1.2893276 0.018659808 368404
-5.1431732 -1.2701385 0.2327837 368413
-5.1565046 -1.2681079 0.2536611 368414
-5.1374917 -1.261604 0.33014476 368417
-10.414949 -1.1583672 0.67489004 368450
-10.431452 -1.1541872 0.71957129 368451
7.1445889 -1.4821963 -0.2193765 368525
3.1682684 -1.3493516 0.64561635 368533
3.164398 -1.3504802 0.63223928 368534
1.9120901 -1.3263135 0.7048918 368566
1.8839867 -1.3273076 0.68915272 368569
1.9224538 -1.3320137 0.64211196 368572
1.9185867 -1.3326633 0.63415015 368573
2.4102502 -1.3628846 0.37124473 368575
2.4051895 -1.3637047 0.36116368 368576
2.3789291 -1.3643869 0.34924638 368578
2.3737729 -1.3651936 0.33930156 368579
2.4260361 -1.3706137 0.28639945 368581
2.4206035 -1.3714346 0.27625021 368582
2.4280219 -1.3742157 0.24599741 368584
2.4224124 -1.3750348 0.23583964 368585
-1.9699955 -1.3403208 -0.075122721 369027
-1.9817027 -1.339685 -0.069809556 369028
-2.0204995 -1.2685326 0.72832394 369096
-2.0673628 -1.266597 0.74270016 369099
-2.1273925 -1.2628785 0.775123 369104
-1.8866258 -1.2583022 0.865412 369105
-1.8894577 -1.2575018 0.87400657 369106
-4.6199684 -1.2954965 0.0072367922 369107
-1.8873811 -1.2557942 0.89364356 369108
-1.8900895 -1.2549952 0.90224123 369109
-1.8516521 -1.2536633 0.92345417 369110
-1.8446578 -1.2527599 0.93478596 369111
-1.8864861 -1.2524562 0.93152153 369112
-5.0725317 -1.2889028 0.0093031554 369113
-5.0790653 -1.2868246 0.031749561 369114
-5.1606188 -1.2682818 0.22830766 369123
-5.1661921 -1.2661835 0.25113606 369124
-5.1306319 -1.2595767 0.3315171 369127
-10.437813 -1.1542165 0.67268848 369160
-10.429396 -1.1502069 0.71936321 369161
7.122355 -1.4846284 -0.21349126 369235
3.1539507 -1.3501916 0.64989555 369243
3.1500986 -1.3513135 0.636581 369244
5.6851258 -1.460089 -0.17370744 369247
1.9430208 -1.331408 0.66203421 369279
1.9180599 -1.3326038 0.64439511 369282
1.9142026 -1.3332502 0.63645273 369283
2.4721262 -1.3675669 0.3408539 369285
2.4669311 -1.3684068 0.33050433 369286
2.4012711 -1.3667797 0.33804023 369288
2.3960645 -1.3675921 0.32799867 369289
1.9163301 -1.3395487 0.56562608 369290
2.4296794 -1.3719159 0.28469008 369291
2.4242387 -1.3727359 0.27452525 369292
2.432518 -1.3755789 0.24376486 369294
2.426898 -1.3763973 0.2335878 369295
-1.9690629 -1.3393766 -0.074572362 369738
-1.9839388 -1.3389044 -0.071695194 369739
-2.0231726 -1.2676367 0.72720611 369807
-2.0728717 -1.2657245 0.74060118 369810
-2.1310482 -1.2619377 0.77378017 369815
-1.8684539 -1.2571473 0.87131572 369816
-1.8712602 -1.2563527 0.87983167 369817
-4.6321864 -1.2935586 0.0030725398 369818
-1.8472052 -1.2543672 0.90624475 369819
-1.8498586 -1.2535831 0.9146682 369820
-1.875419 -1.2530854 0.91606754 369821
-1.851226 -1.251967 0.93270546 369822
-1.8863528 -1.2515633 0.93146193 369823
-5.06949 -1.2865562 0.0099312589 369824
-5.120225 -1.2849545 0.019646166 369825
-5.1526895 -1.2658659 0.22999847 369834
-5.1738081 -1.263872 0.2490411 369835
-5.140223 -1.2572805 0.32908165 369838
-10.440612 -1.1494223 0.6719687 369871
-10.450145 -1.1452723 0.71729183 369872
3.1606812 -1.352061 0.64815307 369954
3.156821 -1.3531835 0.63480914 369955
1.9312469 -1.3317174 0.66759014 369990
1.9405935 -1.3348558 0.63372892 369993
1.9366887 -1.3355082 0.62568849 369994
2.4416981 -1.3670231 0.35603637 369996
2.4365692 -1.3678497 0.34581873 369997
2.3630409 -1.365684 0.3577036 369999
2.3579206 -1.3664806 0.34782797 370000
1.8920414 -1.3407929 0.55833524 370003
1.8878071 -1.3414217 0.55050617 370004
2.4377875 -1.3771421 0.24103253 370005
2.4321549 -1.3779595 0.23083238 370006
-1.9626994 -1.3379899 -0.069759786 370455
-1.9838965 -1.3378472 -0.071774967 370456
-2.0193863 -1.2664806 0.72852653 370524
-2.0690668 -1.264547 0.74187028 370527
-2.1452262 -1.2609992 0.76892203 370532
-1.8693634 -1.2561502 0.8709265 370533
-1.8721709 -1.2553537 0.87944639 370534
-4.6549735 -1.2914293 -0.0044694366 370535
-1.8957883 -1.2539916 0.89079422 370536
-1.8727318 -1.2528661 0.90745735 370537
-1.8505237 -1.2517725 0.92361486 370538
-1.8301268 -1.2507209 0.9389897 370539
-1.8891886 -1.2505748 0.93053097 370540
-5.0742226 -1.2839484 0.0082998937 370541
-5.0807595 -1.2818621 0.030754006 370542
-5.1584496 -1.2631989 0.22833389 370551
-5.1669374 -1.261113 0.25044975 370552
-5.1421075 -1.2545897 0.32840624 370555
-10.412597 -1.1441909 0.67372817 370588
-10.436079 -1.1399287 0.71786737 370589
7.1174622 -1.4917364 -0.21160141 370663
1.9417297 -1.3016539 1.0199037 370668
3.1683886 -1.3539534 0.64611948 370671
3.1645184 -1.3550767 0.63274199 370672
1.9176754 -1.3318932 0.67396343 370707
1.9117907 -1.3341337 0.64760417 370710
1.9079468 -1.3347741 0.63968879 370711
2.4488821 -1.3686564 0.35260776 370713
2.4437375 -1.3694829 0.34235874 370714
2.4199758 -1.3703157 0.32874155 370716
2.2940631 -1.3637252 0.38091806 370717
1.9172528 -1.3414984 0.56535715 370718
2.4040976 -1.3727486 0.29844072 370719
2.3987169 -1.3735541 0.28838655 370720
2.5040534 -1.3813717 0.2187008 370721
2.4386876 -1.3784035 0.24066697 370722
2.4330528 -1.3792185 0.23046274 370723
-1.9422884 -1.3371074 -0.068305776 371167
-1.9642209 -1.3370097 -0.071083851 371168
-1.9838374 -1.3367726 -0.0718771 371169
-2.0352461 -1.2656673 0.72245902 371237
-2.0746543 -1.2635212 0.73973268 371240
-2.1385324 -1.2597498 0.77103859 371245
-1.8788012 -1.2552654 0.86769062 371246
-1.8816224 -1.2544634 0.8762517 371247
-4.6415644 -1.2888076 -0.00042114872 371248
-1.8614109 -1.2525411 0.90155196 371249
-1.864084 -1.2517482 0.91003722 371250
-1.8514242 -1.2507793 0.92322612 371251
-1.8511311 -1.2499601 0.93253523 371252
-1.8699629 -1.2493466 0.93613201 371253
-5.0674214 -1.2812119 0.01001368 371254
-5.0739493 -1.279125 0.032438166 371255
-5.1680765 -1.2605472 0.22569035 371264
-5.1756024 -1.2584475 0.24808258 371265
-5.127398 -1.251822 0.33147985 371268
-10.461313 -1.1383547 0.66928631 371301
-10.468858 -1.1342038 0.71485138 371302
7.1707449 -1.4977601 -0.22437569 371376
1.9233595 -1.3019719 1.0249525 371381
3.1635325 -1.3555059 0.64765257 371384
3.1596684 -1.3566254 0.6342957 371385
1.9257958 -1.3334039 0.67030162 371420
1.9099507 -1.3350699 0.64857495 371423
1.9061106 -1.3357074 0.64066732 371424
2.4515243 -1.3701669 0.35141584 371426
2.4463739 -1.3709915 0.34115505 371427
2.3701355 -1.3685892 0.35430998 371429
2.3649995 -1.3693827 0.34440294 371430
2.4040546 -1.3740734 0.29857442 371432
2.398674 -1.374876 0.28852001 371433
2.4342594 -1.3794664 0.24318856 371435
2.4286354 -1.3802767 0.23300309 371436
-1.9321952 -1.3367083 -0.074720271 371878
-1.9462301 -1.3361917 -0.071458846 371879
-1.9650153 -1.3359146 -0.071774743 371880
-1.9838413 -1.3356252 -0.07195738 371881
-2.0258856 -1.2643204 0.72588372 371949
-2.0699522 -1.2622368 0.74134004 371952
-2.1537013 -1.2587066 0.7658599 371957
-1.8702611 -1.2540517 0.87044007 371958
-1.8730699 -1.2532516 0.87896383 371959
-4.6424966 -1.28617 -0.00093721866 371960
-1.8471142 -1.2512798 0.90600008 371961
-1.8497676 -1.2504913 0.91442311 371962
-1.8982705 -1.2502033 0.9087798 371963
-1.8626217 -1.248993 0.92899054 371964
-1.8872193 -1.2484223 0.93092656 371965
-5.1000276 -1.2786373 0.00023522896 371966
-5.1065969 -1.2765331 0.022801297 371967
-5.1525149 -1.2575113 0.22927554 371976
-5.1648846 -1.2554382 0.25042665 371977
-5.1527243 -1.2489926 0.32547507 371980
-10.446288 -1.1325451 0.66999519 372013
-10.452831 -1.1284046 0.71557075 372014
7.1222339 -1.4951969 -0.21250102 372088
3.1673772 -1.3553507 0.64653015 372096
3.1635084 -1.356472 0.6331566 372097
1.9249641 -1.3306074 0.6996001 372129
1.9176348 -1.3327506 0.67405224 372132
1.9009393 -1.3343568 0.65286261 372135
1.8971181 -1.3349916 0.64499414 372136
2.4828527 -1.3718011 0.33590111 372138
2.477634 -1.3726373 0.32550412 372139
2.3816938 -1.3690645 0.34838057 372141
2.3765316 -1.3698624 0.33842331 372142
2.4014037 -1.3736695 0.29994616 372144
2.3960288 -1.3744717 0.28990343 372145
2.3939173 -1.3766317 0.26511586 372147
2.3883901 -1.3774285 0.2551057 372148
-1.9454517 -1.3363534 -0.070828259 372593
-1.9642341 -1.3360786 -0.071147412 372594
-1.9735438 -1.335299 -0.064036235 372595
-2.0146589 -1.2643427 0.73011041 372663
-2.0746653 -1.2625288 0.73966384 372666
-2.1650858 -1.2590876 0.76206052 372671
-1.8389411 -1.2538382 0.88081634 372672
-1.8417051 -1.2530512 0.88920397 372673
-4.6187086 -1.286355 0.0067467289 372674
-1.886211 -1.2519395 0.89365029 372675
-1.8889179 -1.2511352 0.90224338 372676
-1.9221784 -1.2506677 0.90146309 372677
-1.8434854 -1.2489877 0.93478799 372678
-1.8623072 -1.2483686 0.93835086 372679
-5.0904446 -1.2790675 0.0030886426 372680
-5.126791 -1.2772465 0.01703768 372681
-5.1476736 -1.2580137 0.23051569 372690
-5.1551776 -1.2559185 0.25281882 372691
-5.1439633 -1.2494875 0.32751828 372694
-10.446311 -1.1336138 0.67009103 372727
-10.451857 -1.1294836 0.71574271 372728
7.1426721 -1.4920477 -0.21791898 372802
3.1664426 -1.3535982 0.64660072 372810
3.162575 -1.3547208 0.63323146 372811
1.9031465 -1.3309031 0.68061727 372846
1.9378923 -1.3354754 0.63505745 372849
1.9438821 -1.3367022 0.62224603 372850
2.4103661 -1.3661489 0.37158167 372852
2.4053054 -1.3669622 0.36149994 372853
2.3665967 -1.366851 0.35593835 372855
2.3614681 -1.3676462 0.34604692 372856
2.5961914 -1.3832532 0.21098927 372857
2.466779 -1.3764304 0.26531196 372858
2.461252 -1.3772578 0.25498545 372859
2.4386628 -1.3781778 0.24060941 372861
2.433028 -1.3789928 0.23040523 372862
-1.9697833 -1.3374394 -0.075378999 373312
-1.978319 -1.3366213 -0.067635179 373313
-2.0746841 -1.2636883 0.73972094 373384
-2.1252904 -1.2597359 0.77548039 373389
-1.8864256 -1.2555231 0.86516571 373390
-1.8892577 -1.2547187 0.87375987 373391
-4.6263661 -1.2889769 0.0044815298 373392
-1.8643003 -1.2527299 0.90063375 373393
-1.8669773 -1.2519363 0.90913165 373394
-1.8476297 -1.2508882 0.92438549 373395
-1.8463739 -1.25006 0.93396711 373396
-1.8882035 -1.2496967 0.93070537 373397
-5.1144834 -1.282097 -0.0037267187 373398
-5.1537433 -1.280315 0.0094988225 373399
-5.1418929 -1.2608 0.23215544 373408
-5.161056 -1.2587794 0.25161892 373409
-5.1342583 -1.2522671 0.32994428 373412
-10.429458 -1.1394964 0.67192513 373445
-10.437989 -1.1353511 0.7172758 373446
3.1751387 -1.3522199 0.64399755 373528
3.1712601 -1.3533479 0.63059092 373529
1.9058992 -1.3300377 0.67927128 373564
1.9117991 -1.3329406 0.64746374 373567
1.9079551 -1.3335831 0.6395486 373568
1.9207518 -1.3360722 0.61358821 373570
1.9167593 -1.3367159 0.60563427 373571
2.434217 -1.3696434 0.3213025 373573
2.2869771 -1.3618479 0.38441983 373574
1.8951305 -1.3389453 0.57676601 373575
2.3935125 -1.3705753 0.30386072 373576
2.3881559 -1.3713803 0.29385307 373577
2.4474704 -1.3774142 0.23572171 373579
2.4418149 -1.3782355 0.22547963 373580
-1.9587203 -1.338001 -0.066719681 374029
-1.9830753 -1.3380303 -0.071184061 374030
-2.0027349 -1.337793 -0.071839102 374031
-2.0502238 -1.2644888 0.74862659 374101
-2.1792145 -1.2637144 0.73548466 374104
-2.1300321 -1.2610457 0.77399677 374106
-1.8788302 -1.2565213 0.86777174 374107
-1.8816514 -1.2557216 0.876333 374108
-4.6340046 -1.2917205 0.0022640685 374109
-1.8604863 -1.2537744 0.90193355 374110
-1.8631581 -1.2529839 0.91041493 374111
-1.9250637 -1.2529111 0.90073025 374112
-1.8597748 -1.2513007 0.9300136 374113
-1.8901204 -1.2508258 0.93023056 374114
-5.1125903 -1.2849914 -0.0029142555 374115
-5.1460819 -1.283172 0.011964139 374116
-5.2328553 -1.2774534 0.0618697 374119
-5.1564856 -1.2638288 0.22882672 374125
-5.1630273 -1.2617331 0.25140324 374126
-5.1352606 -1.2551985 0.3299745 374129
-10.41159 -1.1455321 0.673877 374162
-10.43208 -1.1412994 0.71823978 374163
7.1282363 -1.4838591 -0.2149885 374237
3.1838021 -1.3509424 0.64141762 374245
3.1799126 -1.3520757 0.62797356 374246
1.9259264 -1.3276366 0.69889575 374278
1.9584786 -1.3320019 0.6548937 374281
1.9316205 -1.3331152 0.63791645 374284
1.9277345 -1.3337669 0.62991542 374285
2.396981 -1.3628542 0.37801909 374287
2.3919497 -1.3636683 0.36799622 374288
2.4030983 -1.3665627 0.33711275 374290
2.2647996 -1.3593671 0.39579058 374291
2.5050578 -1.3750086 0.25835854 374292
2.4995008 -1.3758565 0.24786638 374293
2.4938979 -1.3767017 0.23739848 374294
2.3939795 -1.3728341 0.2647498 374296
2.3884521 -1.3736398 0.25474042 374297
-1.9627007 -1.3393229 -0.069658846 374742
-1.9767625 -1.3388133 -0.06620115 374743
-2.0240705 -1.2679476 0.72687799 374811
-2.0653064 -1.2658943 0.74333215 374814
-2.1518662 -1.2625631 0.76680857 374819
-1.8674662 -1.2574048 0.8716507 374820
-1.870271 -1.256611 0.88016248 374821
-4.6150136 -1.293979 0.0086202901 374822
-1.8519337 -1.2547001 0.90475851 374823
-1.8545938 -1.2539142 0.9132027 374824
-1.8667768 -1.2532489 0.91872704 374825
-1.8751191 -1.2525285 0.92550176 374826
-1.8776879 -1.2517352 0.93404663 374827
-5.0809727 -1.2874074 0.0066147624 374828
-5.1278782 -1.285766 0.017486176 374829
-5.1516843 -1.26659 0.23028935 374838
-5.1640539 -1.2645394 0.25143802 374839
-5.14604 -1.2580427 0.32780287 374842
-10.427633 -1.1509858 0.67311209 374875
-10.436163 -1.1468499 0.71845484 374876
1.9369332 -1.2982851 1.0209324 374955
3.1617174 -1.3483936 0.64756835 374958
3.1578557 -1.3495212 0.63422066 374959
1.9523908 -1.3280557 0.68702197 374991
1.9494307 -1.3304927 0.65902346 374994
1.8739784 -1.3288738 0.66543925 374997
1.8702141 -1.3295074 0.65768892 374998
2.4704063 -1.3658428 0.34163344 375000
2.4652147 -1.3666859 0.331292 375001
2.4075654 -1.365576 0.33475795 375003
2.4227517 -1.3676115 0.3141506 375004
2.4369161 -1.3696057 0.29385057 375005
2.3811734 -1.367381 0.3102124 375006
2.2480788 -1.360379 0.36837423 375007
1.890497 -1.3394184 0.54890752 375008
2.4168024 -1.3730073 0.25225466 375009
2.4112201 -1.3738242 0.24214654 375010
-1.9431485 -1.3406734 -0.068594292 375452
-1.9619234 -1.3404408 -0.068920016 375453
-1.9799469 -1.3401529 -0.068504736 375454
-2.0091031 -1.2688373 0.7326175 375522
-2.0709658 -1.2671953 0.74143231 375525
-2.1642048 -1.2640042 0.76281053 375530
-1.8579849 -1.2583476 0.87490964 375531
-1.8607763 -1.2575591 0.88338035 375532
-4.6140952 -1.2965837 0.0091804517 375533
-1.8557597 -1.2558327 0.90367323 375534
-1.858425 -1.2550467 0.91213405 375535
-1.8820853 -1.2545379 0.9141584 375536
-1.8847044 -1.2537425 0.92273372 375537
-1.8796177 -1.2528516 0.93359852 375538
-5.0771708 -1.2902364 0.0080143223 375539
-5.1221499 -1.2886 0.019424057 375540
-5.1507516 -1.2694913 0.23080806 375549
-5.1582594 -1.2674115 0.25312522 375550
-5.1412024 -1.2609162 0.32919118 375553
-10.441667 -1.1566927 0.67252338 375586
-10.446214 -1.1525838 0.71823019 375587
3.1761069 -1.3490102 0.64347941 375669
3.1722269 -1.3501431 0.63006902 375670
1.9213526 -1.3264313 0.70087385 375702
1.9022602 -1.3279397 0.6808244 375705
1.939715 -1.3326087 0.63397855 375708
1.9358119 -1.3332655 0.62594253 375709
2.4462049 -1.3644909 0.35358876 375711
2.441066 -1.3653252 0.34335217 375712
2.4279866 -1.3668284 0.32430968 375714
2.42272 -1.367654 0.31415254 375715
2.431484 -1.3704755 0.28365678 375717
2.4260392 -1.3713 0.27348468 375718
