# .PCD v0.7 - Point Cloud Data file format
VERSION 0.7
FIELDS x y z intensity
SIZE 4 4 4 4
TYPE F F F F
COUNT 1 1 1 1
WIDTH 1201
HEIGHT 1
VIEWPOINT 0 0 0 1 0 0 0
POINTS 1201
DATA ascii
-1.1970558 -8.134531 1.8592806 2115959
-1.1973358 -8.1389666 1.8287536 2115960
0.58332413 1.3166604 0.84944069 2116632
0.58329642 1.3176455 0.86124158 2116633
0.58325887 1.3185779 0.87303817 2116634
0.5828473 1.3175493 0.88530588 2116635
-1.2394274 -8.1315861 1.9819571 2116676
-1.2386812 -8.1306658 1.951092 2116677
-1.238668 -8.1335325 1.9204723 2116678
-1.237492 -8.1303844 1.8895212 2116679
-1.2372384 -8.1320076 1.8588474 2116680
-1.2362015 -8.1295748 1.8279921 2116681
-1.2358973 -8.1309338 1.7973233 2116682
0.59821254 1.3148177 0.84945107 2117353
0.59799713 1.3148531 0.86150247 2117354
0.59795892 1.3157855 0.873299 2117355
0.59547096 1.3042763 0.88818234 2117356
-1.2289525 -8.1356401 1.9823916 2117397
-1.2284002 -8.1356993 1.951579 2117398
-1.2278228 -8.1356258 1.9207755 2117399
-1.2268443 -8.1334581 1.8898768 2117400
-1.2277203 -8.1409664 1.8594877 2117401
-1.2280071 -8.1454039 1.8289083 2117402
-1.2267653 -8.1418581 1.7979814 2117403
0.59458274 1.3184394 0.84860581 2118074
0.59418356 1.3175268 0.8609162 2118075
0.59340179 1.3146524 0.87368953 2118076
0.59372598 1.3174371 0.88499725 2118077
-1.2179277 -8.1397696 1.9826739 2118118
-1.2168205 -8.1368856 1.9516686 2118119
-1.2168069 -8.1397533 1.9210402 2118120
-1.217141 -8.1444521 1.8905004 2118121
-1.2167045 -8.1450949 1.8597348 2118122
-1.2162431 -8.145606 1.8289714 2118123
-1.215012 -8.1420584 1.7980529 2118124
0.59048867 1.3202051 0.84828651 2118795
0.58990872 1.3183415 0.86084747 2118796
0.58913356 1.3154658 0.87362087 2118797
0.58890116 1.31539 0.88564217 2118798
-1.2244486 -8.1426039 1.9828291 2118839
-1.2240857 -8.1436443 1.9520515 2118840
-1.2235104 -8.1435719 1.9212176 2118841
-1.2244076 -8.1512146 1.8908137 2118842
-1.2217234 -8.1400862 1.8594351 2118843
-1.2223831 -8.1464844 1.8289521 2118844
-1.2203983 -8.1390114 1.7978671 2118845
0.59224367 1.3178943 0.84882659 2119516
0.59129077 1.3141264 0.86187172 2119517
0.591438 1.3160094 0.87341768 2119518
0.5915755 1.3178416 0.88496751 2119519
-1.2478911 -8.1431961 1.9827371 2119560
-1.2486651 -8.1501179 1.952305 2119561
-1.2482708 -8.1510305 1.9214802 2119562
-1.2484219 -8.1547508 1.8908137 2119563
-1.2458827 -8.1446133 1.8594493 2119564
-1.2454122 -8.1451273 1.8286642 2119565
-1.2456771 -8.1494331 1.7980396 2119566
0.60141563 1.3200802 0.84798032 2120237
0.60195321 1.3239253 0.85907203 2120238
0.60229301 1.3267721 0.87042677 2120239
0.60281175 1.3305233 0.88155615 2120240
-1.2722597 -8.1455727 1.982722 2120281
-1.2716917 -8.1456394 1.9518313 2120282
-1.271485 -8.1475325 1.9210634 2120283
-1.2714458 -8.1502724 1.8903401 2120284
-1.2704126 -8.1479826 1.8593608 2120285
-1.2691602 -8.1445789 1.8283663 2120286
-1.2682692 -8.1430016 1.7974882 2120287
0.61038989 1.3202995 0.84764689 2120958
0.60883117 1.3136935 0.86145538 2120959
0.60802639 1.3108226 0.87422395 2120960
0.60970265 1.3202697 0.88386357 2120961
-1.2911887 -8.1418171 1.9824293 2121002
-1.2908096 -8.1428642 1.9515998 2121003
-1.2906007 -8.1447582 1.9208275 2121004
-1.2899725 -8.1445627 1.8899429 2121005
-1.2881407 -8.1383572 1.8587805 2121006
-1.2886375 -8.1437721 1.8282053 2121007
-1.288323 -8.1451368 1.7974322 2121008
0.61710495 1.3169929 0.84827155 2121679
0.61610693 1.3132381 0.86133277 2121680
0.61529136 1.3103702 0.87410539 2121681
0.61563051 1.313152 0.88541341 2121682
-1.3115314 -8.1438322 1.9825952 2121723
-1.3111476 -8.1448832 1.9517397 2121724
-1.3097417 -8.1409092 1.9206012 2121725
-1.3118916 -8.1544151 1.8904494 2121726
-1.3086416 -8.141367 1.8588905 2121727
-1.30835 -8.1428661 1.8281103 2121728
-1.3090259 -8.1491299 1.7975205 2121729
0.62405598 1.3145944 0.84863645 2122400
0.62442166 1.3174846 0.85997045 2122401
0.62379283 1.3155761 0.87252635 2122402
0.62433475 1.3193151 0.88362646 2122403
-1.3464772 -8.1489229 1.9825431 2122444
-1.3462887 -8.1509552 1.9516963 2122445
-1.344851 -8.1469908 1.9205019 2122446
-1.3442006 -8.1468019 1.8895612 2122447
-1.3429122 -8.1435471 1.8584871 2122448
-1.3426144 -8.1450481 1.8276677 2122449
-1.3437135 -8.153266 1.7971164 2122450
0.63697237 1.3159074 0.84790432 2123121
0.63674349 1.3159554 0.85999346 2123122
0.63710779 1.3187963 0.87134451 2123123
0.63746184 1.3215885 0.88270789 2123124
-1.3986095 -8.1368961 1.9814546 2123165
-1.3971493 -8.1330748 1.9502476 2123166
-1.3973491 -8.1369257 1.9195362 2123167
-1.3960435 -8.1338139 1.8884352 2123168
-1.3966082 -8.1393547 1.8578002 2123169
-1.3963008 -8.1408596 1.8269506 2123170
-1.3968083 -8.1461411 1.7962509 2123171
0.65758985 1.3164997 0.84704286 2123842
0.65672815 1.3137152 0.85989058 2123843
0.65564531 1.3099217 0.87294173 2123844
0.65517652 1.3089114 0.88523376 2123845
-1.4506696 -8.121417 1.9798936 2123886
-1.4519999 -8.1302662 1.9494931 2123887
-1.449586 -8.122427 1.9180671 2123888
-1.4523861 -8.1378384 1.8879662 2123889
-1.452098 -8.1394787 1.8570707 2123890
-1.4500334 -8.1331882 1.8258234 2123891
-1.4507782 -8.1394396 1.7951448 2123892
0.67700797 1.3102803 0.84798801 2124563
0.67697996 1.31128 0.85984379 2124564
0.67672408 1.3112806 0.87193674 2124565
0.67667258 1.3121737 0.88377941 2124566
-1.4490377 -8.1432438 1.9814404 2124607
-1.448403 -8.1433344 1.950403 2124608
-1.4464335 -8.1374445 1.9190372 2124609
-1.4455229 -8.1362925 1.887993 2124610
-1.4441483 -8.1330585 1.8568728 2124611
-1.4429621 -8.1306648 1.825833 2124612
-1.443269 -8.1349659 1.7950941 2124613
0.67554677 1.3145707 0.84693098 2125284
0.67508906 1.313684 0.85929513 2125285
0.67526501 1.3155793 0.87091357 2125286
0.67456806 1.3136349 0.88348484 2125287
-1.4292475 -8.1435003 1.9817908 2125328
-1.4299101 -8.149437 1.9511349 2125329
-1.4281789 -8.1445189 1.919816 2125330
-1.4281385 -8.1472673 1.8889666 2125331
-1.4282839 -8.1508598 1.8581489 2125332
-1.4266815 -8.1465158 1.8269612 2125333
-1.4252654 -8.143014 1.7958589 2125334
0.6699903 1.3227314 0.84499884 2126005
0.66911405 1.3199598 0.85788429 2126006
0.66801256 1.3161802 0.87097317 2126007
0.66796207 1.3170769 0.88282847 2126008
-1.4205049 -8.1566257 1.9829038 2126049
-1.4198816 -8.1567163 1.9518356 2126050
-1.4198695 -8.1595993 1.9209459 2126051
-1.4179085 -8.1535721 1.8895713 2126052
-1.4178392 -8.1561909 1.8586887 2126053
-1.4185938 -8.1625824 1.8279643 2126054
-1.4156944 -8.1522474 1.7965277 2126055
0.66397053 1.3151234 0.84713691 2126726
0.66394299 1.3161256 0.85900116 2126727
0.66432625 1.3189692 0.87037784 2126728
0.66406506 1.3189201 0.88247895 2126729
-1.4326 -8.1580696 1.9829661 2126770
-1.4321873 -8.1591368 1.9519413 2126771
-1.4317455 -8.1600723 1.920917 2126772
-1.4304148 -8.1569738 1.8896858 2126773
-1.4301299 -8.1586189 1.8587292 2126774
-1.4285269 -8.1542768 1.8275065 2126775
-1.4281843 -8.1556568 1.796564 2126776
0.67006576 1.3227067 0.84496784 2127447
0.67046446 1.32561 0.8563785 2127448
0.66915101 1.3208902 0.86973441 2127449
0.6686756 1.3198966 0.88208562 2127450
-1.4459531 -8.1633511 1.9827111 2127491
-1.4451041 -8.1624708 1.9515302 2127492
-1.4442259 -8.1614571 1.9203674 2127493
-1.4448346 -8.1671343 1.8895863 2127494
-1.4445474 -8.1687794 1.8585732 2127495
-1.4412003 -8.1566391 1.8269486 2127496
-1.4406388 -8.1570435 1.7959454 2127497
0.67437184 1.3217858 0.84514374 2128168
0.67434549 1.3227968 0.85704607 2128169
0.67516458 1.327541 0.86797816 2128170
0.67361486 1.3218181 0.88154936 2128171
-1.4668694 -8.1781225 1.9835888 2128212
-1.4657922 -8.1762762 1.9522649 2128213
-1.4640282 -8.1713724 1.9207988 2128214
-1.4628922 -8.1692562 1.8895416 2128215
-1.4630399 -8.1728544 1.8585975 2128216
-1.462501 -8.1733952 1.8275 2128217
-1.4601825 -8.1660042 1.7960949 2128218
0.68216091 1.3269992 0.84352738 2128889
0.68365049 1.3346318 0.85373962 2128890
0.68318123 1.3337132 0.86617976 2128891
0.68204945 1.3298965 0.87931001 2128892
-1.4882598 -8.183526 1.9840391 2128933
-1.4880559 -8.1855783 1.9529139 2128934
-1.4876004 -8.1865253 1.9217244 2128935
-1.4871149 -8.1873398 1.890536 2128936
-1.486156 -8.1860723 1.8592541 2128937
-1.4867178 -8.1914911 1.8282939 2128938
-1.4843704 -8.1841116 1.7967891 2128939
0.68998009 1.3282006 0.8428967 2129610
0.68995494 1.3292227 0.85484129 2129611
0.69035643 1.3320827 0.86629879 2129612
0.69030792 1.3330014 0.87824303 2129613
-1.5082419 -8.1881876 1.9842253 2129654
-1.5071393 -8.1863527 1.952819 2129655
-1.5069029 -8.1882744 1.921664 2129656
-1.5070845 -8.1920109 1.8906049 2129657
-1.5067871 -8.1936684 1.8594264 2129658
-1.5064591 -8.1951933 1.8282415 2129659
-1.5056527 -8.1946383 1.7969732 2129660
0.69713581 1.3285562 0.84254366 2130331
0.69666773 1.3276932 0.8549878 2130332
0.69618708 1.3267729 0.86741078 2130333
0.6959157 1.3267417 0.87957519 2130334
-1.5174243 -8.180891 1.9525082 2130376
-1.5171866 -8.1828127 1.9213662 2130377
-1.5184978 -8.191412 1.890579 2130378
-1.5181985 -8.1930714 1.8593919 2130379
-1.518545 -8.1975174 1.8283275 2130380
-1.5179585 -8.197938 1.7970763 2130381
0.70131195 1.327605 0.84261698 2131052
0.70173311 1.3305163 0.85407889 2131053
0.70236605 1.3343235 0.86531204 2131054
0.70053041 1.3276838 0.87917417 2131055
-1.5285237 -8.1752834 1.9517202 2131097
-1.5285122 -8.1781769 1.9206475 2131098
-1.5309699 -8.1916342 1.8901268 2131099
-1.5299869 -8.1903753 1.8587847 2131100
-1.530109 -8.1938457 1.8276769 2131101
-1.5286102 -8.1903744 1.7962757 2131102
0.70565033 1.3266085 0.84276843 2131773
0.70607466 1.3295187 0.85423046 2131774
0.70558804 1.328604 0.86667025 2131775
0.70553863 1.3295225 0.87861449 2131776
-1.5484954 -8.1695843 1.9511964 2131818
-1.5496349 -8.1773338 1.9204078 2131819
-1.5482115 -8.1742649 1.8889914 2131820
-1.5485978 -8.1788378 1.8579897 2131821
-1.546192 -8.1716127 1.8264405 2131822
-1.5469755 -8.177865 1.7955036 2131823
0.71389538 1.3276634 0.84218961 2132494
0.71364313 1.3277483 0.85440075 2132495
0.71337825 1.3277783 0.86659914 2132496
0.71332854 1.3286978 0.87854767 2132497
-1.5731286 -8.1534939 1.9498055 2132539
-1.5724164 -8.153471 1.9186128 2132540
-1.5719066 -8.1542854 1.8874815 2132541
-1.5720665 -8.1578808 1.8564934 2132542
-1.5714933 -8.158432 1.8253529 2132543
-1.5715895 -8.1617651 1.7943308 2132544
0.72349238 1.3233936 0.8429442 2133215
0.72300476 1.3225356 0.8553921 2133216
0.72250396 1.3216203 0.86781889 2133217
0.72314769 1.3253664 0.87903988 2133218
-1.598091 -8.1423244 1.9489276 2133260
-1.5978436 -8.1442413 1.9178686 2133261
-1.5975641 -8.1460276 1.886802 2133262
-1.5982022 -8.1515627 1.8559166 2133263
-1.5973829 -8.151144 1.8247337 2133264
-1.5970066 -8.1525354 1.7936392 2133265
0.73541749 1.3294773 0.84091991 2133936
0.73492396 1.3286308 0.85340571 2133937
0.73441696 1.3277271 0.8658703 2133938
0.73507231 1.3314797 0.87712973 2133939
-1.6145921 -8.1464901 1.9490441 2133981
-1.6145822 -8.1493788 1.9180059 2133982
-1.6121436 -8.1424417 1.8864377 2133983
-1.6111108 -8.1411877 1.8552231 2133984
-1.6119614 -8.1475592 1.8243694 2133985
-1.611582 -8.1489515 1.793275 2133986
0.74051315 1.3262558 0.84155184 2134657
0.74001515 1.3254082 0.85402906 2134658
0.74045163 1.3282681 0.86552131 2134659
0.74040151 1.3291947 0.87749952 2134660
-1.631169 -8.1485481 1.9492121 2134702
-1.630192 -8.1475649 1.917925 2134703
-1.627732 -8.1406336 1.8863484 2134704
-1.6274152 -8.1422901 1.8552662 2134705
-1.6260989 -8.1399374 1.824007 2134706
-1.6249919 -8.1384201 1.7928152 2134707
0.74789196 1.3314091 0.83991331 2135378
0.74786872 1.3324493 0.85192978 2135379
0.74711502 1.3306148 0.86466473 2135380
0.74730456 1.3324878 0.87642306 2135381
-1.6504749 -8.1478481 1.9489529 2135423
-1.6482662 -8.1420279 1.9173704 2135424
-1.6484677 -8.1457548 1.8863629 2135425
-1.6481473 -8.1474133 1.8552372 2135426
-1.6458403 -8.1411905 1.8237646 2135427
-1.6461865 -8.1454916 1.7927762 2135428
0.75455379 1.3287536 0.84033614 2136099
0.7535643 1.3260369 0.8533287 2136100
0.75207692 1.3213786 0.86676496 2136101
0.75396001 1.3298299 0.8768332 2136102
-1.6733931 -8.1440983 1.9487607 2136144
-1.6738787 -8.1489267 1.9177817 2136145
-1.6725981 -8.1468515 1.8864102 2136146
-1.671037 -8.1436749 1.8550197 2136147
-1.6706792 -8.1452045 1.823879 2136148
-1.6673207 -8.134985 1.7922746 2136149
0.76321709 1.3285836 0.85226846 2136821
0.76318032 1.3295712 0.86428058 2136822
0.76362002 1.3323866 0.87581521 2136823
-1.6973312 -8.1441526 1.9485362 2136865
-1.6960688 -8.1422138 1.9171422 2136866
-1.6962761 -8.1459436 1.8860823 2136867
-1.6949457 -8.1437397 1.8547173 2136868
-1.6945837 -8.1452723 1.8235506 2136869
-1.6926851 -8.1408682 1.7921495 2136870
0.77239782 1.3292369 0.85174412 2137542
0.77062625 1.3236588 0.86545402 2137543
0.77057493 1.3245894 0.87744486 2137544
-1.7171741 -8.1472301 1.9488473 2137586
-1.7174178 -8.1510944 1.9177516 2137587
-1.7133249 -8.1384029 1.8857616 2137588
-1.7127408 -8.139102 1.8545502 2137589
-1.7118696 -8.1387033 1.8232988 2137590
-1.7122287 -8.1430054 1.7922493 2137591
0.77964348 1.3293527 0.85137552 2138263
0.77935666 1.3294084 0.86364955 2138264
0.77880532 1.3284703 0.87614709 2138265
-1.7372718 -8.1502209 1.94885 2138307
-1.7347064 -8.1434698 1.9171097 2138308
-1.7336401 -8.142374 1.8857467 2138309
-1.7333057 -8.144042 1.854543 2138310
-1.7339585 -8.1494427 1.8235023 2138311
-1.7320218 -8.145051 1.7920409 2138312
0.78517056 1.3228953 0.8527723 2138984
0.78488016 1.3229463 0.86502504 2138985
0.7863465 1.3295096 0.87561011 2138986
-1.7508523 -8.1455736 1.948645 2139028
-1.7511007 -8.1494389 1.9175187 2139029
-1.7507987 -8.1512442 1.8862654 2139030
-1.7502038 -8.1519508 1.8549584 2139031
-1.7470002 -8.1428728 1.8232306 2139032
-1.746336 -8.1433144 1.7919725 2139033
0.79167354 1.3261862 0.85164613 2139705
0.79163665 1.3271798 0.86367941 2139706
0.79184067 1.3290583 0.87547189 2139707
-1.7617325 -8.1571207 1.9492987 2139749
-1.7596543 -8.1523094 1.9176131 2139750
-1.7572827 -8.1463985 1.8859301 2139751
-1.7569443 -8.1480713 1.8546828 2139752
-1.7573459 -8.1525078 1.8235562 2139753
-1.7577118 -8.1568127 1.7923976 2139754
0.79447955 1.3254586 0.85171652 2140426
0.79469818 1.3273888 0.86350918 2140427
0.79515916 1.3302056 0.87506956 2140428
-1.7685766 -8.1521902 1.9489485 2140470
-1.768567 -8.1550941 1.917719 2140471
-1.7690411 -8.1597948 1.8865751 2140472
-1.7684411 -8.1605062 1.8552116 2140473
-1.7654705 -8.1524029 1.82347 2140474
-1.7637626 -8.1489878 1.7919993 2140475
-1.7625387 -8.1473703 1.7606342 2140476
0.79862207 1.3293682 0.8505612 2141147
0.79807222 1.328495 0.86309671 2141148
0.79802161 1.3294394 0.87513822 2141149
-1.7910345 -8.1575251 1.9490997 2141191
-1.7912872 -8.1613951 1.9178774 2141192
-1.7909793 -8.1632071 1.8865285 2141193
-1.7906353 -8.1648865 1.8551725 2141194
-1.7884202 -8.1596851 1.8235147 2141195
-1.7880048 -8.1610985 1.7921771 2141196
-1.7854569 -8.154665 1.7605664 2141197
0.80696988 1.3311257 0.84976894 2141867
0.80693406 1.3321286 0.86184031 2141868
0.8058455 1.3293335 0.8748523 2141869
-1.8142422 -8.1542988 1.9487599 2141911
-1.8160911 -8.1639442 1.9178559 2141912
-1.8157794 -8.1657581 1.8864678 2141913
-1.8138393 -8.1616631 1.8547937 2141914
-1.8123941 -8.1593599 1.8232499 2141915
-1.8106476 -8.1559591 1.7916974 2141916
-1.8096609 -8.1553154 1.7602835 2141917
0.81592202 1.3306922 0.84948659 2142588
0.81509882 1.3288945 0.86228764 2142589
0.81557363 1.331715 0.87387794 2142590
0.81629765 1.3354234 0.88524866 2142591
-1.8397826 -8.1586208 1.9488727 2142632
-1.8386986 -8.1576853 1.9173137 2142633
-1.8386523 -8.1604624 1.8859764 2142634
-1.8388375 -8.1640711 1.8546699 2142635
-1.837375 -8.1617746 1.8230873 2142636
-1.8345342 -8.1545305 1.7913452 2142637
-1.8354142 -8.1606312 1.7601433 2142638
0.82765901 1.3395348 0.84676641 2143307
0.82629699 1.3358849 0.86009866 2143308
0.82332361 1.3265635 0.87480086 2143309
-1.8667855 -8.1562405 1.9485549 2143351
-1.8659596 -8.15627 1.9170295 2143352
-1.8653686 -8.1571283 1.8855648 2143353
-1.8639241 -8.1549702 1.8539629 2143354
-1.8629868 -8.1546011 1.8224733 2143355
-1.8625563 -8.1560221 1.7910707 2143356
-1.8623602 -8.1582727 1.7596961 2143357
0.8360002 1.3321671 0.84823382 2144024
0.83300447 1.3229212 0.86298597 2144025
0.8337608 1.3266711 0.8743363 2144026
-1.8942235 -8.1557131 1.9482197 2144068
-1.8933868 -8.1557465 1.9166642 2144069
-1.8922369 -8.1546879 1.8850681 2144070
-1.8913252 -8.1544571 1.8535372 2144071
-1.8881714 -8.146409 1.8216826 2144072
-1.8871847 -8.1459103 1.7902094 2144073
-1.8886395 -8.1539259 1.7590469 2144074
0.84563309 1.3294487 0.84850186 2144743
0.84614307 1.332325 0.86013097 2144744
0.8460933 1.3332876 0.87224442 2144745
-1.9130088 -8.1554766 1.9482788 2144787
-1.9129995 -8.158392 1.9168664 2144788
-1.9110051 -8.1544619 1.885084 2144789
-1.9123094 -8.1619101 1.8539011 2144790
-1.9121851 -8.1644306 1.8224505 2144791
-1.9114665 -8.1648998 1.7909104 2144792
-1.9098762 -8.1623564 1.7592746 2144793
0.85224694 1.3275542 0.84864259 2145461
0.85193634 1.3276366 0.86099207 2145462
0.85133511 1.3267324 0.87356454 2145463
-1.9328012 -8.1684494 1.9489248 2145505
-1.93027 -8.1627436 1.9169405 2145506
-1.9279808 -8.1578617 1.8850688 2145507
-1.9259338 -8.1538019 1.8532971 2145508
-1.9283289 -8.1649532 1.8222399 2145509
-1.9270452 -8.1635065 1.7906033 2145510
-1.9246038 -8.1580887 1.7588556 2145511
0.85890436 1.3296689 0.84781921 2146177
0.85914648 1.3316166 0.85970551 2146178
0.85687852 1.3251314 0.87371826 2146179
-1.9518347 -8.1722736 1.9489489 2146221
-1.9501302 -8.1694498 1.9170903 2146222
-1.9481047 -8.1655331 1.8852172 2146223
-1.9480171 -8.1681881 1.853712 2146224
-1.9456325 -8.1630459 1.8218579 2146225
-1.9451851 -8.1644773 1.7903206 2146226
-1.9424418 -8.1581068 1.7585143 2146227
0.86696941 1.3343691 0.84628618 2146892
0.86637717 1.3335347 0.85892206 2146893
0.86632764 1.3345045 0.8710652 2146894
0.86682218 1.3372853 0.88274068 2146895
-1.982093 -8.1779127 1.9490465 2146936
-1.9795083 -8.1722279 1.9169635 2146937
-1.9751688 -8.1606665 1.8846406 2146938
-1.9739369 -8.1594944 1.8529384 2146939
-1.9718081 -8.1553173 1.8211312 2146940
-1.9704981 -8.1538782 1.7894824 2146941
-1.969149 -8.1523066 1.7578545 2146942
0.87540352 1.3268189 0.84777981 2147608
0.87480295 1.3259815 0.8603943 2147609
0.87418598 1.3250872 0.87298751 2147610
-2.005933 -8.1643295 1.9161819 2147653
-2.0047252 -8.1632977 1.884413 2147654
-2.0011606 -8.1544847 1.8522965 2147655
-2.0010319 -8.1570091 1.8207674 2147656
-1.9994159 -8.1546211 1.7890383 2147657
-1.9994965 -8.1578379 1.7575356 2147658
0.88726234 1.3303444 0.8463546 2148328
0.88751513 1.3322992 0.85827917 2148329
0.88517243 1.3258456 0.87232786 2148330
-2.0358491 -8.163578 1.9159788 2148373
-2.035212 -8.164463 1.8842757 2148374
-2.0362949 -8.1709452 1.852849 2148375
-2.0314703 -8.1581945 1.8205442 2148376
-2.0280731 -8.1500826 1.7885498 2148377
-2.0275688 -8.1513901 1.7569642 2148378
0.89821601 1.3290402 0.84613824 2149046
0.8976019 1.3282167 0.8587904 2149047
0.89697111 1.3273365 0.87142128 2149048
-2.0660274 -8.1563702 1.9151874 2149091
-2.0662744 -8.1601181 1.8836257 2149092
-2.0661829 -8.1627808 1.8519942 2149093
-2.0639682 -8.1586361 1.8200586 2149094
-2.0590374 -8.1457701 1.7878373 2149095
-2.0573373 -8.1432638 1.7560999 2149096
0.90932447 1.3256204 0.84646618 2149761
0.90987915 1.3285003 0.85815978 2149762
0.91012388 1.3304055 0.87010139 2149763
-2.0982997 -8.1598768 1.9150338 2149806
-2.0964401 -8.1569614 1.8830663 2149807
-2.0936353 -8.1510544 1.850999 2149808
-2.0916936 -8.1478701 1.8191185 2149809
-2.091217 -8.1493168 1.78746 2149810
-2.0916023 -8.1534901 1.7558936 2149811
0.92265642 1.3306005 0.84458917 2150482
0.92083544 1.3260951 0.85823685 2150483
0.92078549 1.3270754 0.87041795 2150484
-2.0936213 -8.1582022 1.9150488 2150527
-2.0932693 -8.1600475 1.8833439 2150528
-2.0910709 -8.1560459 1.8513587 2150529
-2.0915384 -8.1604843 1.8197902 2150530
-2.0901597 -8.1590729 1.7879689 2150531
-2.0905433 -8.163249 1.7563634 2150532
0.92005336 1.3273495 0.84551162 2151198
0.91972268 1.3274603 0.85794502 2151199
0.91997075 1.3293664 0.86989522 2151200
-2.0942154 -8.1727047 1.9155582 2151243
-2.092061 -8.1688366 1.8834929 2151244
-2.0913675 -8.1695967 1.8517005 2151245
-2.091233 -8.1721306 1.8199929 2151246
-2.0883546 -8.1659546 1.7879395 2151247
-2.0869365 -8.1644096 1.7561131 2151248
0.92132288 1.3361115 0.84333479 2151915
0.91742945 1.3251389 0.85867983 2151916
0.91856837 1.3298177 0.86991167 2151917
-2.0985079 -8.1755419 1.9156985 2151960
-2.095448 -8.1688185 1.8834662 2151961
-2.0956557 -8.1724377 1.851806 2151962
-2.0940173 -8.1702089 1.8198752 2151963
-2.0932395 -8.1707048 1.7880839 2151964
-2.0936224 -8.1748819 1.756426 2151965
0.92248213 1.3357458 0.84336656 2152634
0.92096335 1.3321685 0.85679585 2152635
0.92002153 1.3303785 0.86970806 2152636
0.9205516 1.3331609 0.88143545 2152637
-2.1150274 -8.189187 1.9163181 2152679
-2.1146724 -8.19104 1.8844562 2152680
-2.1109505 -8.1822872 1.8520874 2152681
-2.1083965 -8.177206 1.8199724 2152682
-2.1091251 -8.1824684 1.788317 2152683
-2.1076965 -8.1809301 1.7563949 2152684
0.92722654 1.3362819 0.84300613 2153353
0.92779374 1.3391752 0.85476792 2153354
0.92654979 1.336471 0.8679533 2153355
0.92798239 1.3420376 0.879022 2153356
-2.1237721 -8.1790972 1.9154912 2153398
-2.1258464 -8.1885605 1.884058 2153399
-2.125144 -8.1893291 1.8521395 2153400
-2.1234879 -8.1871099 1.8201002 2153401
-2.1211832 -8.1828527 1.7880167 2153402
-2.1194441 -8.1803646 1.7560451 2153403
0.93068266 1.3331543 0.84363383 2154072
0.93035084 1.3332747 0.85610533 2154073
0.93090397 1.3361129 0.86785865 2154074
0.9323439 1.341678 0.87893188 2154075
-2.1454952 -8.1857901 1.915627 2154117
-2.1448298 -8.1866961 1.8836894 2154118
-2.1416721 -8.1798601 1.851391 2154119
-2.1390853 -8.1747904 1.8192466 2154120
-2.1385992 -8.1762447 1.7874138 2154121
-2.1389883 -8.1804218 1.7556728 2154122
0.94097763 1.3420897 0.84091657 2154791
0.93913138 1.3376106 0.85463512 2154792
0.93817508 1.3358369 0.86759341 2154793
0.93811053 1.3367776 0.87982941 2154794
-2.1649656 -8.1816387 1.9151289 2154836
-2.1652212 -8.1853952 1.8833315 2154837
-2.1641986 -8.1852198 1.851329 2154838
-2.1628246 -8.1839609 1.8192965 2154839
-2.1610992 -8.1816177 1.787248 2154840
-2.1587143 -8.1772394 1.755165 2154841
0.94953007 1.3444141 0.83991706 2155507
0.94919658 1.3445536 0.85246032 2155508
0.9488458 1.3446381 0.86499083 2155509
0.94939488 1.3474383 0.87681633 2155510
-2.1885695 -8.1813145 1.9148759 2155552
-2.1885159 -8.184123 1.8829983 2155553
-2.1859252 -8.1792059 1.8507441 2155554
-2.184227 -8.1770029 1.8186669 2155555
-2.1840434 -8.1794119 1.7868011 2155556
-2.1835048 -8.1807404 1.7548894 2155557
0.95632827 1.3391668 0.85341877 2156226
0.95659053 1.3410923 0.86546683 2156227
0.95652753 1.3420447 0.87774938 2156228
-2.2157376 -8.1755362 1.9140069 2156270
-2.2159989 -8.1792917 1.8821657 2156271
-2.2171619 -8.1857615 1.8504353 2156272
-2.2167041 -8.1873579 1.8184516 2156273
-2.2165174 -8.1897717 1.7864987 2156274
-2.2118762 -8.1787729 1.7540846 2156275
0.96807951 1.3414559 0.85232478 2156945
0.96678609 1.3387837 0.86557192 2156946
0.96609801 1.3378934 0.8783198 2156947
-2.2470617 -8.1819248 1.9141635 2156989
-2.2457311 -8.1809521 1.8820062 2156990
-2.2433999 -8.1770048 1.8497334 2156991
-2.240706 -8.1719751 1.8174659 2156992
-2.2417927 -8.1781769 1.7856883 2156993
-2.2428343 -8.184248 1.7538621 2156994
0.97797924 1.3381579 0.85261375 2157661
0.9785648 1.341007 0.86445278 2157662
0.97818613 1.3410459 0.87699544 2157663
-2.2695358 -8.1848879 1.9141004 2157705
-2.2665863 -8.1791925 1.8816538 2157706
-2.2661645 -8.1809282 1.8496288 2157707
-2.2663407 -8.1844234 1.8176786 2157708
-2.2655077 -8.1849489 1.7855967 2157709
-2.2639871 -8.1834469 1.753455 2157710
0.98554558 1.3366376 0.85260141 2158378
0.98645443 1.3404047 0.86421031 2158379
0.98543638 1.3386074 0.877222 2158380
-2.2894397 -8.1844177 1.9142243 2158422
-2.2874401 -8.1815681 1.8818995 2158423
-2.2860429 -8.1804724 1.849701 2158424
-2.2826581 -8.1735725 1.8172798 2158425
-2.2818191 -8.1740999 1.78522 2158426
-2.2802877 -8.1726036 1.7531005 2158427
0.99328631 1.3370705 0.85203946 2159095
0.99356151 1.3390032 0.8641302 2159096
0.99317771 1.3390477 0.87668538 2159097
-2.3100617 -8.1889601 1.9143088 2159139
-2.3077209 -8.185174 1.8818874 2159140
-2.3046827 -8.1793633 1.8494221 2159141
-2.3038826 -8.180028 1.8173027 2159142
-2.3049936 -8.1862278 1.7854027 2159143
-2.3044281 -8.1875734 1.7532957 2159144
1.0003313 1.3367088 0.85175979 2159813
0.99964035 1.3358922 0.86456233 2159814
0.99763817 1.331347 0.87826425 2159815
-2.3287125 -8.1952009 1.9143181 2159857
-2.3253722 -8.188592 1.881698 2159858
-2.3242843 -8.1884499 1.849462 2159859
-2.3198688 -8.1787376 1.8168342 2159860
-2.3209865 -8.1849356 1.7849164 2159861
-2.3210735 -8.1881704 1.7528551 2159862
1.007826 1.3403053 0.85053211 2160533
1.0084318 1.3431611 0.86242247 2160534
1.0060945 1.3377125 0.87639648 2160535
-2.3472419 -8.2003937 1.9143865 2160577
-2.346523 -8.201335 1.8821107 2160578
-2.3427858 -8.1936579 1.8494356 2160579
-2.3380127 -8.1830139 1.8167205 2160580
-2.3364964 -8.1816654 1.7844719 2160581
-2.3369136 -8.1858435 1.7524333 2160582
1.0147189 1.3420235 0.84976447 2161252
1.0153292 1.344882 0.86167192 2161253
1.0146139 1.3440251 0.87451214 2161254
-2.3521369 -8.20611 1.9147553 2161296
-2.3497639 -8.2023411 1.8822044 2161297
-2.3493285 -8.204093 1.8499664 2161298
-2.3475244 -8.2019405 1.8175611 2161299
-2.3469961 -8.2034264 1.7853285 2161300
-2.3434482 -8.1962891 1.7528074 2161301
1.0139676 1.3371118 0.85097289 2161971
1.0135959 1.3372186 0.86356199 2161972
1.0154974 1.3436857 0.87452781 2161973
-2.350697 -8.2129498 1.9152505 2162015
-2.3486571 -8.210124 1.8827223 2162016
-2.3472316 -8.2090492 1.8503199 2162017
-2.3467498 -8.2106695 1.8180581 2162018
-2.3455617 -8.2102699 1.7857189 2162019
-2.3446574 -8.21068 1.7534236 2162020
1.0149862 1.3439555 0.84925151 2162685
1.0142899 1.343154 0.86210459 2162686
1.0155361 1.3477948 0.8735559 2162687
-2.3539126 -8.2255793 1.9159173 2162729
-2.351213 -8.2208719 1.8832344 2162730
-2.3481374 -8.2150841 1.8505611 2162731
-2.3473256 -8.2157612 1.8182329 2162732
-2.3467972 -8.2172499 1.7859436 2162733
-2.3432548 -8.2101126 1.7533656 2162734
1.0155646 1.3468442 0.8485328 2163400
1.0138894 1.3432983 0.86210155 2163401
1.0148082 1.3470227 0.87378293 2163402
-2.3705454 -8.2250423 1.9159076 2163444
-2.3678291 -8.2203417 1.8832034 2163445
-2.3667269 -8.2202158 1.8507762 2163446
-2.3652458 -8.2190142 1.8183198 2163447
-2.3633862 -8.2167349 1.785848 2163448
-2.3641348 -8.2218637 1.7536581 2163449
1.0244554 1.3540083 0.84629577 2164116
1.0224437 1.3495615 0.86014098 2164117
1.0220549 1.3496294 0.8727808 2164118
-2.3855176 -8.21978 1.9153324 2164160
-2.3854575 -8.2226162 1.8830196 2164161
-2.3836801 -8.2206106 1.8504686 2164162
-2.382858 -8.2212963 1.8180667 2164163
-2.3816545 -8.2209053 1.785632 2164164
-2.3800707 -8.2194405 1.7531784 2164165
1.030072 1.3520346 0.8464936 2164836
1.0297011 1.3521633 0.85916734 2164837
1.0286494 1.3504062 0.87228817 2164838
-2.4117503 -8.2263937 1.9151899 2164880
-2.4089944 -8.2217102 1.8824219 2164881
-2.4065282 -8.2178297 1.8497523 2164882
-2.4046886 -8.2156954 1.8172086 2164883
-2.4054956 -8.2209539 1.7849796 2164884
-2.405581 -8.2241983 1.7526479 2164885
1.0386504 1.351054 0.84631723 2165552
1.0379436 1.3502721 0.85923344 2165553
1.0368835 1.3485188 0.87235814 2165554
-2.4405899 -8.2245512 1.9146779 2165596
-2.4405284 -8.2273912 1.8822647 2165597
-2.438036 -8.2235241 1.8495264 2165598
-2.4378781 -8.2260971 1.8171132 2165599
-2.4339297 -8.2182007 1.7842948 2165600
-2.4336758 -8.2205067 1.7519014 2165601
1.0490892 1.3493676 0.84617686 2166271
1.0480387 1.3476779 0.85933536 2166272
1.0462939 1.3441035 0.87292331 2166273
-2.4676921 -8.2189503 1.9141856 2166315
-2.4659111 -8.217103 1.8815128 2166316
-2.4651127 -8.2179356 1.8490001 2166317
-2.4649534 -8.2205105 1.8165696 2166318
-2.4644012 -8.2220144 1.7840892 2166319
-2.4638007 -8.2233858 1.7516038 2166320
1.0601203 1.349493 0.84552383 2166987
1.0576991 1.3441685 0.85963434 2166988
1.0586607 1.3478951 0.87138486 2166989
-2.5437846 -8.1939154 1.9117229 2167031
-2.5447838 -8.1995611 1.8794239 2167032
-2.5450239 -8.2032061 1.8469955 2167033
-2.5437989 -8.2029819 1.8143858 2167034
-2.5414624 -8.1998196 1.7816826 2167035
-2.5415521 -8.2030678 1.7492331 2167036
-2.536288 -8.1921568 1.7163664 2167037
1.0910968 1.3462942 0.844598 2167703
1.0910587 1.3473535 0.85710537 2167704
1.0899495 1.3456357 0.87029618 2167705
-2.6219335 -8.1817713 1.8773807 2167748
-2.6167264 -8.1714592 1.8442525 2167749
-2.6165593 -8.1740389 1.8117787 2167750
-2.6145232 -8.1718321 1.7791169 2167751
-2.6153429 -8.1769409 1.7467279 2167752
-2.6146572 -8.1781931 1.7141958 2167753
1.1196851 1.3384584 0.84485811 2168418
1.1185673 1.3368108 0.8580777 2168419
1.1188685 1.3387222 0.87035167 2168420
-2.6587987 -8.1791649 1.8763095 2168463
-2.6561048 -8.1753798 1.8434389 2168464
-2.6548314 -8.1751757 1.8107698 2168465
-2.6542413 -8.1766968 1.7781817 2168466
-2.6532311 -8.1771564 1.7455585 2168467
-2.6477563 -8.1663275 1.71263 2168468
1.1330363 1.3374212 0.85719109 2169135
1.1337072 1.3402389 0.8692621 2169136
-2.6431768 -8.1938906 1.8773254 2169179
-2.6408658 -8.1910295 1.8444626 2169180
-2.6403308 -8.1926842 1.811832 2169181
-2.6390128 -8.1923447 1.7791265 2169182
-2.6350861 -8.1853609 1.7462219 2169183
-2.6343956 -8.186615 1.7136245 2169184
1.1246629 1.3354914 0.84536064 2169851
1.1267954 1.3419684 0.85647815 2169852
1.1281861 1.3465971 0.86809987 2169853
-2.6229429 -8.1964283 1.8778696 2169896
-2.6213737 -8.1954212 1.8451148 2169897
-2.617938 -8.1896267 1.8121846 2169898
-2.6173556 -8.1911459 1.7795962 2169899
-2.6159954 -8.1906681 1.7469422 2169900
-2.6193001 -8.2021685 1.7146393 2169901
1.1202276 1.3444965 0.84342885 2170568
1.1245036 1.356408 0.85317653 2170569
1.1251688 1.3592442 0.86531079 2170570
-2.6387317 -8.1645393 1.8755449 2170613
-2.6404476 -8.1718969 1.8432847 2170614
-2.6435757 -8.1828442 1.8111217 2170615
-2.6415231 -8.180644 1.7783822 2170616
-2.642714 -8.1866808 1.7459444 2170617
-2.6416559 -8.187006 1.7133037 2170618
1.136012 1.3571301 0.8395409 2171285
1.1330788 1.3509973 0.85402679 2171286
1.1330239 1.3520221 0.86661047 2171287
-2.6588018 -8.1297474 1.8732836 2171330
-2.6579459 -8.1305962 1.8408296 2171331
-2.6607401 -8.1405945 1.8087661 2171332
-2.6642208 -8.1523218 1.7766875 2171333
-2.6643164 -8.1555643 1.7442375 2171334
-2.663619 -8.1568184 1.7117144 2171335
1.1475347 1.3547159 0.85233915 2172001
1.1471148 1.3548481 0.86518955 2172002
-2.6648612 -8.0842676 1.8709171 2172045
-2.6625092 -8.0814037 1.8384655 2172046
-2.6671932 -8.0960188 1.8067867 2172047
-2.6707036 -8.107729 1.7748774 2172048
-2.6715493 -8.1128197 1.7426575 2172049
-2.6712234 -8.1149998 1.7103217 2172050
1.1541276 1.3478994 0.85351789 2172717
1.1540731 1.3489301 0.86612266 2172718
-2.649107 -8.0249329 1.8677764 2172761
-2.6538606 -8.0396576 1.8364083 2172762
-2.6574378 -8.0514793 1.8047961 2172763
-2.6587174 -8.0576162 1.7728767 2172764
-2.6633084 -8.0719671 1.7411786 2172765
-2.6637328 -8.0759945 1.7090726 2172766
1.1572036 1.3477122 0.85338354 2173434
1.1556673 1.3451427 0.86690664 2173435
-2.6435037 -7.9916496 1.8658959 2173478
-2.6452711 -7.9989538 1.834327 2173479
-2.644361 -7.9996481 1.8024294 2173480
-2.6475224 -8.0104046 1.7709122 2173481
-2.6476314 -8.0136213 1.7390637 2173482
-2.652559 -8.028759 1.707526 2173483
1.1613263 1.3502581 0.85256195 2174149
1.1620157 1.3530936 0.86473101 2174150
-2.6444466 -7.9406157 1.8630192 2174193
-2.6488724 -7.9543786 1.831955 2174194
-2.6483369 -7.9559922 1.8002704 2174195
-2.6500137 -7.9630299 1.7687857 2174196
-2.6550329 -7.978272 1.7375124 2174197
-2.6566019 -7.9850588 1.7058749 2174198
1.171949 1.3553983 0.85073274 2174868
1.1692799 1.3501506 0.8649956 2174869
-2.6511726 -7.8968558 1.8606482 2174912
-2.6506891 -7.8985872 1.8291919 2174913
-2.6520555 -7.9048114 1.7979221 2174914
-2.653749 -7.9118352 1.7666374 2174915
-2.6569104 -7.9224315 1.7354149 2174916
-2.6603973 -7.9338284 1.7041264 2174917
1.1742349 1.3376441 0.85472983 2175588
1.1749327 1.3404688 0.86686951 2175589
-2.6412799 -7.8285346 1.8571287 2175632
-2.648452 -7.8487096 1.8268197 2175633
-2.6525083 -7.8613834 1.7960232 2175634
-2.6561275 -7.8730121 1.7650831 2175635
-2.6593101 -7.8835955 1.7340126 2175636
-2.65938 -7.8866663 1.7026483 2175637
-2.663219 -7.898849 1.6714728 2175638
1.1618723 1.2911907 0.86631781 2176304
-2.6066978 -7.7552757 1.8534291 2176348
-2.6085153 -7.7625117 1.8228743 2176349
-2.6183045 -7.7890162 1.7930683 2176350
-2.6203976 -7.7969365 1.7623407 2176351
-2.6293123 -7.8213615 1.732082 2176352
-2.6362615 -7.8410506 1.7014745 2176353
-2.639719 -7.852304 1.6705005 2176354
-2.5813947 -7.7051687 1.8510996 2177065
-2.5881741 -7.7243962 1.8213457 2177066
-2.5899398 -7.731503 1.7909205 2177067
-2.5943236 -7.7449541 1.7606766 2177068
-2.5940778 -7.7472005 1.7299579 2177069
-2.5979741 -7.7594867 1.6995057 2177070
-2.6021981 -7.7725778 1.6689665 2177071
-2.5970502 -7.6709814 1.8183726 2177787
-2.6003788 -7.6817589 1.7883004 2177788
-2.6032689 -7.6914949 1.7581021 2177789
-2.6041803 -7.6964998 1.7276727 2177790
-2.6034994 -7.6976929 1.6971036 2177791
-2.6100812 -7.7162938 1.6669278 2177792
-2.6312664 -7.6370773 1.8163379 2178506
-2.6334739 -7.6450715 1.7862284 2178507
-2.635237 -7.6520267 1.7560189 2178508
-2.6365561 -7.6579418 1.7257231 2178509
-2.6378224 -7.6637373 1.6953801 2178510
-2.6417713 -7.6758523 1.6651348 2178511
-2.6619093 -7.6055059 1.8141696 2179219
-2.6645455 -7.6144004 1.7841709 2179220
-2.6659384 -7.6204247 1.7539966 2179221
-2.6656919 -7.6226587 1.7236575 2179222
-2.6657891 -7.625689 1.6933305 2179223
-2.6662292 -7.6295161 1.6630034 2179224
-2.6674373 -7.5911293 1.813382 2179937
-2.6657059 -7.5899353 1.7830142 2179938
-2.6667078 -7.5950365 1.7529022 2179939
-2.6692476 -7.6036854 1.7228674 2179940
-2.6677558 -7.6030445 1.6925111 2179941
-2.667007 -7.604116 1.6622099 2179942
-2.6666453 -7.5620766 1.8115486 2180653
-2.6673067 -7.5663738 1.7815254 2180654
-2.6687131 -7.5723839 1.7515379 2180655
-2.6720626 -7.5828562 1.7216477 2180656
-2.6713657 -7.5840468 1.6914196 2180657
-2.6706161 -7.5851159 1.6611881 2180658
1.233042 1.3255184 0.85396969 2181321
-2.6647871 -7.5227776 1.779464 2181367
-2.669416 -7.5360985 1.7499217 2181368
-2.6727855 -7.5465574 1.7201747 2181369
-2.675298 -7.555069 1.6902875 2181370
-2.6773551 -7.5625467 1.660307 2181371
-2.68016 -7.5717382 1.6302947 2181372
1.2542684 1.3576472 0.8451525 2182039
1.249849 1.348951 0.86046803 2182040
-2.6803083 -7.5279646 1.6290467 2182090
1.2663428 1.366191 0.84241122 2182754
1.2643007 1.362846 0.85641617 2182755
1.2638341 1.3629934 0.8694815 2182756
1.2750674 1.3665935 0.84178108 2183472
1.2734168 1.3641447 0.85557503 2183473
1.2733512 1.3651855 0.86843836 2183474
1.2849452 1.3664322 0.84121168 2184189
1.2780153 1.3524809 0.8579762 2184190
1.2775415 1.3526266 0.87102425 2184191
1.2941098 1.3644527 0.84111488 2184907
1.2887642 1.3540617 0.85697722 2184908
1.2948234 1.3683774 0.86648506 2184909
1.3041675 1.3631107 0.84080201 2185625
1.3049508 1.3659831 0.85327095 2185626
1.2999513 1.3564327 0.86887056 2185627
1.314044 1.3597027 0.85415828 2186343
1.3160542 1.3651675 0.865964 2186344
-0.53500634 -2.6050329 1.3572323 2186421
1.3264385 1.3604152 0.85321504 2187060
1.3272126 1.3632362 0.86571419 2187061
-0.5316658 -2.5908637 1.3652931 2187137
-0.53655505 -2.6020837 1.3573602 2187138
-0.5414232 -2.6132684 1.3493177 2187139
-0.53255528 -2.5946453 1.34498 2187140
-0.52368999 -2.5760117 1.3408189 2187141
-0.52105051 -2.570889 1.3349707 2187142
1.3325247 1.3608398 0.85273397 2187780
1.3333024 1.3636622 0.865246 2187781
-0.52701235 -2.575819 1.3602771 2187858
-0.52940273 -2.5815947 1.3530229 2187859
-0.52885723 -2.5810289 1.346521 2187860
-0.53663236 -2.59846 1.3376229 2187861
-0.54229915 -2.6113451 1.3291765 2187862
-0.53546637 -2.5971828 1.3244629 2187863
-0.52987963 -2.5857067 1.3194836 2187864
-0.52263033 -2.5706186 1.3151611 2187865
-0.53777361 -2.6040602 1.3033352 2187866
-0.52636218 -2.579941 1.3005228 2187867
1.3375384 1.3606406 0.85245317 2188499
1.3366345 1.3599466 0.86586303 2188500
-0.5251171 -2.5660586 1.3546984 2188578
-0.51955229 -2.5546906 1.3496544 2188579
-0.52611285 -2.5694172 1.3412364 2188580
-0.52888829 -2.5760052 1.3337938 2188581
-0.52788848 -2.5744648 1.3274438 2188582
-0.52520943 -2.5693033 1.3216382 2188583
-0.53418869 -2.5892828 1.3120342 2188584
-0.5310663 -2.5831678 1.3063436 2188585
-0.53625327 -2.5949862 1.2977893 2188586
-0.53767776 -2.5986903 1.2904711 2188587
1.3464543 1.3671995 0.85039234 2189218
1.3451271 1.3656383 0.86406678 2189219
-0.52749366 -2.5638471 1.3545846 2189297
-0.52568847 -2.5605898 1.3485038 2189298
-0.52639425 -2.5627065 1.3417315 2189299
-0.5266661 -2.5638959 1.3350611 2189300
-0.52482808 -2.5605655 1.3290209 2189301
-0.52633178 -2.5643976 1.3219452 2189302
-0.52614558 -2.5646088 1.3153799 2189303
-0.52929151 -2.5719719 1.3076757 2189304
-0.53200036 -2.5784039 1.3000439 2189305
-0.53469032 -2.5848022 1.2923473 2189306
-0.53944528 -2.5956447 1.2838126 2189307
1.35201 1.3645922 0.85068858 2189937
1.3515263 1.3647884 0.86391842 2189938
-0.51960707 -2.5403881 1.3508102 2190017
-0.52243376 -2.5470045 1.3435274 2190018
-0.52524257 -2.5535893 1.3361787 2190019
-0.52508491 -2.5538578 1.3296665 2190020
-0.52701873 -2.5585868 1.3224833 2190021
-0.5255726 -2.5561101 1.3163522 2190022
-0.52915597 -2.5643666 1.3085401 2190023
-0.52516717 -2.556462 1.3032767 2190024
-0.5316512 -2.5709245 1.2943244 2190025
-0.52973497 -2.5674469 1.2883257 2190026
1.3606116 1.3680617 0.84935319 2190655
1.3588479 1.365635 0.86327881 2190656
-0.51852721 -2.5365026 1.3512627 2190735
-0.51882386 -2.5377285 1.3447186 2190736
-0.5199514 -2.5407245 1.3379114 2190737
-0.52148557 -2.5445893 1.3309442 2190738
-0.52005553 -2.5421448 1.32487 2190739
-0.52198172 -2.5468504 1.3177164 2190740
-0.52473205 -2.5533178 1.310231 2190741
-0.52452409 -2.5534823 1.3037038 2190742
-0.52640098 -2.5580962 1.2964197 2190743
-0.52826083 -2.5626788 1.2890881 2190744
1.3627163 1.3692143 0.84894723 2191373
1.3639405 1.3729266 0.86132711 2191374
-0.51715136 -2.5341313 1.3451862 2191454
-0.51828033 -2.5371284 1.3383963 2191455
-0.51939452 -2.5400975 1.3315753 2191456
-0.5188089 -2.5394495 1.3252562 2191457
-0.52115721 -2.5450532 1.317978 2191458
-0.52054524 -2.5443518 1.3116362 2191459
-0.52034152 -2.5445213 1.3051522 2191460
-0.52390099 -2.552721 1.2973092 2191461
-0.52241075 -2.5501497 1.2912419 2191462
-0.52258509 -2.5511315 1.2845597 2191463
1.3661393 1.3762128 0.84714431 2192093
1.3665116 1.3781797 0.86000222 2192094
-0.51880169 -2.5322683 1.3452039 2192174
-0.51824123 -2.5316749 1.3389167 2192175
-0.51766908 -2.5310564 1.332633 2192176
-0.52131128 -2.5393779 1.3250198 2192177
-0.52071166 -2.5387053 1.3187003 2192178
-0.52094376 -2.539799 1.3121006 2192179
-0.52200514 -2.5426555 1.3051951 2192180
-0.52052581 -2.5401161 1.2991626 2192181
-0.52071834 -2.5411296 1.2925321 2192182
-0.52089739 -2.5421162 1.2858887 2192183
1.3737097 1.3812137 0.84552306 2192810
1.3719432 1.3788078 0.85952479 2192811
-0.52366138 -2.5202863 1.3395442 2192892
-0.52308434 -2.5196753 1.3332955 2192893
-0.5242101 -2.5226138 1.326516 2192894
-0.52532077 -2.5255241 1.3197057 2192895
-0.52983868 -2.535547 1.3117272 2192896
-0.52621424 -2.5285828 1.3064326 2192897
-0.52343792 -2.5233843 1.3009009 2192898
-0.52619863 -2.5297506 1.2933998 2192899
-0.52680999 -2.5316305 1.2866312 2192900
1.3914334 1.3715451 0.84654367 2193528
1.3918146 1.3735151 0.85943162 2193529
-0.53158581 -2.51419 1.3393866 2193610
-0.52926099 -2.5100198 1.333665 2193611
-0.52910119 -2.5102813 1.3273122 2193612
-0.53240293 -2.5176384 1.3198494 2193613
-0.5317803 -2.5169561 1.3135947 2193614
-0.53071219 -2.5153599 1.3074908 2193615
-0.53136504 -2.5172946 1.3007953 2193616
-0.53157061 -2.5183139 1.2942334 2193617
-0.53305864 -2.5219691 1.2871795 2193618
1.4137114 1.3703789 0.84534562 2194248
1.4088125 1.3619156 0.86092895 2194249
-0.53239822 -2.5027206 1.3404495 2194330
-0.5335682 -2.5056782 1.3337345 2194331
-0.53516114 -2.5094965 1.3268546 2194332
-0.53629994 -2.5123975 1.3200734 2194333
-0.53567356 -2.511719 1.3138319 2194334
-0.53459811 -2.510129 1.3077414 2194335
-0.53394812 -2.509402 1.3015122 2194336
-0.53415817 -2.5104234 1.2949762 2194337
-0.53348321 -2.5096469 1.2887468 2194338
1.4285196 1.3727789 0.84378541 2194968
1.4253602 1.3678167 0.85852027 2194969
-0.53530914 -2.5001469 1.3404399 2195050
-0.53560364 -2.5013254 1.3339887 2195051
-0.53676575 -2.5042531 1.3272554 2195052
-0.53659177 -2.5044916 1.3209064 2195053
-0.53816402 -2.5082517 1.3139818 2195054
-0.53488702 -2.5022342 1.3086352 2195055
-0.53379786 -2.500627 1.3025877 2195056
-0.53488964 -2.5034225 1.2957748 2195057
-0.53465188 -2.5035355 1.2894115 2195058
1.4351816 1.3683455 0.84432822 2195687
1.4342387 1.3677257 0.85795236 2195688
-0.54072273 -2.502985 1.3396388 2195769
-0.5410167 -2.5041606 1.3331658 2195770
-0.54351115 -2.5097425 1.326008 2195771
-0.54289049 -2.5090916 1.3197631 2195772
-0.5396058 -2.503103 1.314379 2195773
-0.5389635 -2.5024064 1.3081676 2195774
-0.54007334 -2.5052238 1.3013545 2195775
-0.54116744 -2.5080128 1.2945111 2195776
-0.54004496 -2.5063555 1.2884378 2195777
1.4436487 1.3684251 0.84375048 2196404
1.4413555 1.3652139 0.85805452 2196405
-0.54296923 -2.5040705 1.339308 2196486
-0.54104191 -2.5008125 1.3334759 2196487
-0.53954887 -2.498419 1.3275391 2196488
-0.53893209 -2.4977744 1.321346 2196489
-0.54051775 -2.5015306 1.3144423 2196490
-0.53987455 -2.5008352 1.3082354 2196491
-0.53877717 -2.4992311 1.302184 2196492
-0.53943485 -2.5011384 1.2955221 2196493
-0.54007763 -2.5030184 1.2888387 2196494
1.4438118 1.3617909 0.84524411 2197121
1.4446611 1.3646336 0.85797548 2197122
-0.54480582 -2.504251 1.3390714 2197203
-0.54420954 -2.5036526 1.3328452 2197204
-0.54404575 -2.5039153 1.3264884 2197205
-0.54431331 -2.505038 1.3199879 2197206
-0.54279131 -2.5025961 1.3140458 2197207
-0.5461368 -2.5098574 1.306505 2197208
-0.54148817 -2.5011799 1.3016189 2197209
-0.5412609 -2.5013187 1.2952557 2197210
-0.54013646 -2.4996669 1.2892085 2197211
1.4548314 1.375868 0.84135175 2197838
1.4552369 1.3778619 0.85438061 2197839
-0.55224955 -2.512732 1.3375543 2197920
-0.55209339 -2.5130155 1.3311507 2197921
-0.55103099 -2.5115039 1.3250108 2197922
-0.54728097 -2.5046639 1.3197155 2197923
-0.54530716 -2.5013406 1.3139124 2197924
-0.54510444 -2.5015292 1.3075496 2197925
-0.54622251 -2.5043406 1.3007274 2197926
-0.54732478 -2.5071239 1.2938749 2197927
-0.54841089 -2.5098786 1.2869922 2197928
1.4636254 1.3801033 0.83980221 2198554
1.4644874 1.3829676 0.85264438 2198555
-0.551606 -2.503031 1.3385372 2198636
-0.55100352 -2.5024345 1.3323027 2198637
-0.55038875 -2.5018139 1.3260717 2198638
-0.5520035 -2.5055838 1.3191503 2198639
-0.55091387 -2.5040295 1.3130485 2198640
-0.5493654 -2.5015702 1.3071066 2198641
-0.55048853 -2.5043776 1.3002754 2198642
-0.55114901 -2.5062757 1.2935702 2198643
-0.55090231 -2.5063853 1.287164 2198644
1.4698504 1.3747088 0.84058303 2199270
1.4688967 1.3741181 0.85429978 2199271
-0.5559023 -2.5030522 1.338138 2199352
-0.55394119 -2.4998085 1.3322858 2199353
-0.55377483 -2.5000722 1.3259246 2199354
-0.55539805 -2.5038378 1.3190029 2199355
-0.55565363 -2.5049307 1.3124716 2199356
-0.55454552 -2.5033545 1.3063695 2199357
-0.55432469 -2.5035162 1.2999766 2199358
-0.55364162 -2.5027726 1.2937353 2199359
-0.55294615 -2.5020046 1.2874982 2199360
1.4751103 1.368699 0.85507208 2199984
-0.55986983 -2.504339 1.3376409 2200065
-0.55835307 -2.5019801 1.3316457 2200066
-0.55773139 -2.5013609 1.3254021 2200067
-0.55845475 -2.50336 1.3187451 2200068
-0.55780679 -2.502691 1.3124961 2200069
-0.55714637 -2.5019979 1.3062509 2200070
-0.55737585 -2.5030394 1.299706 2200071
-0.55759096 -2.5040543 1.293148 2200072
-0.55599093 -2.5015295 1.2872194 2200073
1.4838479 1.3718543 0.85378915 2200701
-0.56398398 -2.505569 1.3370824 2200782
-0.56382543 -2.5058541 1.3306832 2200783
-0.56137931 -2.5017123 1.324953 2200784
-0.56074178 -2.5010693 1.3187045 2200785
-0.56099951 -2.5021608 1.312173 2200786
-0.56078947 -2.5023475 1.305776 2200787
-0.56418991 -2.509536 1.2981579 2200788
-0.56621182 -2.5140576 1.2909356 2200789
-0.56459898 -2.5115294 1.2849514 2200790
1.4885991 1.3671571 0.85452837 2201414
-0.56530493 -2.5003846 1.3374426 2201495
-0.56560475 -2.5015512 1.3309302 2201496
-0.5663473 -2.5035713 1.3242692 2201497
-0.5647918 -2.5011706 1.318282 2201498
-0.56504989 -2.5022607 1.3117418 2201499
-0.56574923 -2.5042024 1.3050405 2201500
-0.56506765 -2.503485 1.2987739 2201501
-0.56346411 -2.5009897 1.2928244 2201502
-0.56366664 -2.501977 1.2862535 2201503
1.5022216 1.3765311 0.85154164 2202128
1.5003002 1.3741907 0.86574495 2202129
-0.57200527 -2.5035708 1.3364908 2202209
-0.57046378 -2.5012214 1.3304752 2202210
-0.57075018 -2.5023603 1.3239403 2202211
-0.56826645 -2.4982095 1.318228 2202212
-0.56669134 -2.4957917 1.3122667 2202213
-0.56693882 -2.4968572 1.3057348 2202214
-0.56717187 -2.4978967 1.2991896 2202215
-0.56556064 -2.4954083 1.2932578 2202216
-0.56622344 -2.4972723 1.2865431 2202217
1.5138428 1.3781083 0.85040766 2202845
-0.57976508 -2.5082078 1.3416909 2202925
-0.57498091 -2.4997437 1.336519 2202926
-0.57481986 -2.50003 1.33012 2202927
-0.57418275 -2.4994149 1.323851 2202928
-0.57214707 -2.4961479 1.3180043 2202929
-0.57287025 -2.4981122 1.3113245 2202930
-0.57127285 -2.4956746 1.3053633 2202931
-0.57058573 -2.4949636 1.2991186 2202932
-0.57126606 -2.4968505 1.292408 2202933
-0.56963283 -2.494343 1.286481 2202934
1.5244004 1.3780044 0.84972775 2203564
1.5229286 1.3765427 0.86376524 2203565
-0.5818637 -2.5028071 1.3355616 2203645
-0.58169919 -2.5030916 1.3291366 2203646
-0.57966006 -2.4998515 1.3232479 2203647
-0.58039916 -2.5018361 1.3165511 2203648
-0.58158696 -2.5046678 1.3096883 2203649
-0.58043903 -2.503104 1.3035362 2203650
-0.57696247 -2.4971523 1.2981597 2203651
-0.57579309 -2.4955444 1.2920549 2203652
-0.57507426 -2.4947858 1.2858016 2203653
1.5325792 1.3724961 0.8503719 2204282
1.5329857 1.3744581 0.86354208 2204283
-0.61740357 -2.5570564 1.3537872 2204359
-0.60645586 -2.5372877 1.3497156 2204360
-0.60584474 -2.5367572 1.3432384 2204361
-0.60568935 -2.5370765 1.3366421 2204362
-0.59942544 -2.526006 1.3316891 2204363
-0.59409535 -2.5166678 1.3265812 2204364
-0.59016466 -2.5099335 1.3211571 2204365
-0.58856446 -2.507545 1.3150984 2204366
-0.59209013 -2.5147309 1.307476 2204367
-0.58859622 -2.5088046 1.3020059 2204368
-0.58695924 -2.5063453 1.2959808 2204369
-0.58344895 -2.5003798 1.2906053 2204370
-0.58365214 -2.5013602 1.2839953 2204371
1.5443045 1.3739159 0.84925002 2204997
-0.61400008 -2.5444832 1.3484471 2205075
-0.61998379 -2.5561848 1.3402714 2205076
-0.60803992 -2.5346577 1.3366355 2205077
-0.62340289 -2.5637653 1.3258508 2205078
-0.61285883 -2.5448208 1.3219929 2205079
-0.60748768 -2.5354638 1.3168292 2205080
-0.59929609 -2.5208592 1.312595 2205081
-0.60142142 -2.5254154 1.3053311 2205082
-0.59884375 -2.5212321 1.2995043 2205083
-0.58923757 -2.5039709 1.2960081 2205084
-0.5913229 -2.5084531 1.2887523 2205085
-0.58918667 -2.50508 1.282902 2205086
1.5558681 1.3809509 0.84689993 2205714
1.5496135 1.3709953 0.86316705 2205715
-0.61201698 -2.5410068 1.3488171 2205792
-0.618002 -2.5527103 1.3406583 2205793
-0.61548221 -2.5486546 1.3345885 2205794
-0.61059904 -2.5402112 1.3291914 2205795
-0.61276346 -2.5448408 1.3219072 2205796
-0.61443931 -2.5485682 1.3147103 2205797
-0.60811859 -2.5374441 1.3098522 2205798
-0.61773664 -2.5559344 1.300199 2205799
-0.61514258 -2.5517342 1.2942214 2205800
-0.61441028 -2.5509944 1.2876713 2205801
-0.60197932 -2.5284805 1.2850538 2205802
1.5543876 1.378474 0.84760481 2206433
1.5552795 1.3813007 0.86062789 2206434
-0.62019056 -2.5555022 1.3535123 2206510
-0.61486244 -2.5462477 1.3480763 2206511
-0.61141485 -2.5404708 1.3422571 2206512
-0.61408287 -2.5460289 1.3348992 2206513
-0.60920095 -2.5375865 1.3295152 2206514
-0.6085453 -2.5369809 1.3230314 2206515
-0.6168021 -2.5529242 1.3139752 2206516
-0.60625529 -2.5339513 1.3103549 2206517
-0.60884231 -2.5393715 1.3028818 2206518
-0.60157335 -2.5264707 1.2984716 2206519
-0.60787362 -2.5388019 1.2897539 2206520
