# .PCD v0.7 - Point Cloud Data file format
VERSION 0.7
FIELDS x y z intensity
SIZE 4 4 4 4
TYPE F F F F
COUNT 1 1 1 1
WIDTH 1239
HEIGHT 1
VIEWPOINT 0 0 0 1 0 0 0
POINTS 1239
DATA ascii
-10.984763 -12.735193 -23.081442 32899
-11.092127 -12.816547 -23.081728 32900
-11.201426 -12.899349 -23.084633 32901
-11.316174 -12.986206 -23.096844 32902
-11.42246 -13.066787 -23.091457 32903
-11.521868 -13.142264 -23.071957 32904
-11.630229 -13.224403 -23.068449 32905
-11.747715 -13.313335 -23.080793 32906
-11.865503 -13.402504 -23.092268 32907
-11.967312 -13.479795 -23.073141 32908
-12.072849 -13.559871 -23.059904 32909
-12.191346 -13.649593 -23.068918 32910
-12.299068 -13.731312 -23.057413 32911
-12.406944 -13.813148 -23.045145 32912
-12.52616 -13.903437 -23.051636 32913
-12.647532 -13.995339 -23.060486 32914
-12.757871 -14.079039 -23.049023 32915
-12.875964 -14.16852 -23.049665 32916
-12.994303 -14.258196 -23.049431 32917
-16.075171 -16.593018 -23.016436 32941
-16.210047 -16.695293 -23.007231 32942
-16.358288 -16.80757 -23.014503 32943
-16.502487 -16.916836 -23.01475 32944
-16.664658 -17.039551 -23.037022 32945
-16.796244 -17.139412 -23.017525 32946
-16.945826 -17.252741 -23.019999 32947
-17.08679 -17.359636 -23.009806 32948
-17.241489 -17.476816 -23.015585 32949
-17.380745 -17.582457 -23.000225 32950
-17.536089 -17.700146 -23.003534 32951
-17.689503 -17.816404 -23.002747 32952
-17.845526 -17.934628 -23.003496 32953
-17.990406 -18.044523 -22.989017 32954
-18.163189 -18.175318 -23.006672 32955
-18.308647 -18.285669 -22.989698 32956
-18.477577 -18.413609 -22.99905 32957
-18.64925 -18.543613 -23.009706 32958
-18.802589 -18.659904 -22.997103 32959
-18.975021 -18.790508 -23.004934 32960
-19.140766 -18.916115 -23.003197 32961
-19.304485 -19.040222 -22.997374 32962
-19.482809 -19.17528 -23.006216 32963
-19.659166 -19.30888 -23.010862 32964
-19.819117 -19.430204 -22.995462 32965
-19.991377 -19.560764 -22.991899 32966
-20.178492 -19.702473 -23.002596 32967
-20.385471 -19.859081 -23.032518 32968
-20.546747 -19.981453 -23.011297 32969
-20.705811 -20.10218 -22.986147 32970
-20.901897 -20.250675 -22.99819 32971
-21.06151 -20.371838 -22.970184 32972
-21.278172 -20.535791 -22.999289 32973
-21.463175 -20.676025 -22.993582 32974
-21.646051 -20.81468 -22.983753 32975
-21.846748 -20.966713 -22.98984 32976
-22.027836 -21.104053 -22.974251 32977
-22.24192 -21.266163 -22.989244 32978
-22.461569 -21.432467 -23.007231 32979
-22.664026 -21.585892 -23.006107 32980
-22.86944 -21.74155 -23.005617 32981
-23.08037 -21.901365 -23.008129 32982
-23.317318 -22.080727 -23.032787 32983
-23.513815 -22.229748 -23.017031 32984
-23.720936 -22.386755 -23.009041 32985
-23.977493 -22.580896 -23.044073 32986
-24.195889 -22.746408 -23.041502 32987
-24.409517 -22.908358 -23.03229 32988
-27.921062 -25.570538 -22.86841 33003
-27.936428 -25.583712 -22.668907 33004
-27.950943 -25.596241 -22.469645 33005
-27.972807 -25.614288 -22.276842 33006
-27.999352 -25.635849 -22.088314 33007
-30.336441 -27.401897 -22.72826 33012
-30.36656 -27.426239 -22.5303 33013
-30.359608 -27.422686 -22.307062 33014
-31.634163 -28.386848 -22.522144 33017
-31.237633 -28.090126 -22.033005 33018
-31.117853 -28.001656 -21.734127 33019
-31.622007 -28.382811 -21.847694 33020
-31.690727 -28.43623 -21.672298 33021
-32.333038 -28.921465 -21.865715 33022
-32.564175 -29.097198 -21.789747 33023
-33.630768 -29.905506 -21.778477 33026
-34.451981 -30.525707 -22.050556 33027
-34.411873 -30.49728 -21.793898 33028
-34.540867 -30.596212 -21.639433 33029
-34.585587 -30.631676 -21.43458 33030
-34.881596 -30.856424 -21.376347 33031
-36.132881 -31.800854 -21.864902 33032
-36.751183 -32.268513 -21.977753 33033
-38.333687 -33.464638 -22.374207 33035
-36.84095 -32.343552 -21.063875 33037
-38.3298 -33.471245 -21.129013 33040
-40.618988 -35.204666 -21.290779 33044
-40.988605 -35.485325 -21.215622 33045
-42.128223 -36.348656 -21.24584 33047
-42.517063 -36.643921 -21.165966 33048
-54.985283 -46.087799 -21.697752 33064
-54.930084 -46.048637 -21.349892 33065
-54.959354 -46.073242 -21.034239 33066
-81.794487 -66.412949 -20.379692 33088
-83.753716 -67.901299 -19.895323 33090
-83.596939 -67.786392 -19.388039 33091
4.9236059 -0.79125381 -22.934841 33305
4.8404918 -0.85566878 -22.9268 33306
4.7591548 -0.91864383 -22.92598 33307
4.2395539 -1.3226247 -22.732243 33313
4.1955414 -1.3550007 -22.922394 33314
4.1185207 -1.4144939 -22.937243 33315
4.0387092 -1.4762914 -22.936068 33316
3.9562681 -1.5402675 -22.918823 33317
3.8786836 -1.6002445 -22.928425 33318
3.800457 -1.6607571 -22.933676 33319
3.7248235 -1.7191267 -22.954134 33320
3.6441207 -1.7817039 -22.942842 33321
3.5660148 -1.8421354 -22.946758 33322
3.4867554 -1.9035335 -22.942381 33323
3.4087648 -1.9638836 -22.945402 33324
3.3319616 -2.023248 -22.955837 33325
3.2518086 -2.0854201 -22.942245 33326
3.1750765 -2.1447377 -22.951803 33327
3.0983412 -2.2040615 -22.960932 33328
3.0205708 -2.2642605 -22.961746 33329
2.9418488 -2.3252707 -22.954227 33330
2.8622589 -2.3870277 -22.938364 33331
2.7866406 -2.4454315 -22.953644 33332
2.7082 -2.5062358 -22.944786 33333
2.6316676 -2.5654256 -22.951303 33334
2.5577514 -2.6223819 -22.98115 33335
2.4786277 -2.6837976 -22.963062 33336
2.4017143 -2.743329 -22.964334 33337
2.3224792 -2.8048744 -22.941381 33338
2.2480087 -2.8623102 -22.96559 33339
2.1704855 -2.9223962 -22.95763 33340
2.0934138 -2.9821014 -22.953205 33341
2.0184474 -3.0399675 -22.972193 33342
1.9394896 -3.1013532 -22.943054 33343
1.8654425 -3.1584086 -22.973137 33344
1.7885473 -3.2179923 -22.966999 33345
1.7125821 -3.2767534 -22.972374 33346
1.6355343 -3.3364985 -22.961395 33347
1.5598774 -3.3949926 -22.969908 33348
1.4846789 -3.4530649 -22.985977 33349
1.4059671 -3.514394 -22.941816 33350
1.331031 -3.5722349 -22.961031 33351
1.2557881 -3.6303527 -22.975843 33352
1.1789682 -3.6899796 -22.958311 33353
1.1042066 -3.7476254 -22.98427 33354
1.0286483 -3.8060336 -22.993843 33355
0.95216906 -3.8653727 -22.979036 33356
0.87687075 -3.923516 -22.995764 33357
0.80040944 -3.9828844 -22.976116 33358
0.72514892 -4.0409703 -22.99601 33359
0.64949381 -4.0994725 -23.003496 33360
0.57349288 -4.1583886 -22.994574 33361
0.4975031 -4.2173357 -22.981234 33362
0.42201459 -4.2756128 -22.999462 33363
0.3461951 -4.3343639 -22.99328 33364
0.27053702 -4.3928156 -23.006678 33365
0.19476128 -4.4515047 -23.00366 33366
0.11900103 -4.5101142 -23.008223 33367
0.04329145 -4.5688319 -22.99637 33368
-0.032433152 -4.6274567 -22.996098 33369
-0.10820091 -4.6860828 -22.999407 33370
-0.18423486 -4.7447767 -23.018295 33371
-0.2598778 -4.8034215 -23.008772 33372
-0.33554673 -4.8620539 -23.002827 33373
-0.41179156 -4.9209223 -23.020456 33374
-0.48735225 -4.9795136 -23.009678 33375
-0.56323481 -5.0382519 -23.010473 33376
-0.63898778 -5.0969286 -23.006855 33377
-0.71456838 -5.1555114 -22.998823 33378
-0.79113114 -5.2146449 -23.014345 33379
-0.86725938 -5.2735524 -23.017458 33380
-0.94282758 -5.3321362 -23.008169 33381
-1.0194094 -5.3913317 -23.018423 33382
-1.0951743 -5.4500403 -23.012287 33383
-1.171396 -5.5090346 -23.013714 33384
-1.2479007 -5.5682173 -23.018703 33385
-1.3239268 -5.6271033 -23.015293 33386
-1.4005146 -5.686357 -23.019436 33387
-1.4768603 -5.7454634 -23.019167 33388
-1.5538477 -5.8049984 -23.02644 33389
-1.6289774 -5.8633132 -23.00939 33390
-1.7067086 -5.9233603 -23.023767 33391
-1.781769 -5.9816289 -23.005886 33392
-1.8600109 -6.0420442 -23.023373 33393
-1.9361418 -6.1010423 -23.016573 33394
-2.0134344 -6.1608362 -23.021267 33395
-2.0911999 -6.2209654 -23.029495 33396
-2.1678038 -6.2803063 -23.025379 33397
-2.2439861 -6.3393593 -23.016872 33398
-2.3210433 -6.3990216 -23.015869 33399
-2.3990521 -6.4593554 -23.022352 33400
-2.4790425 -6.5210853 -23.044228 33401
-2.5548484 -6.5798974 -23.030039 33402
-2.6326027 -6.6400805 -23.031242 33403
-2.7099004 -6.6999497 -23.028057 33404
-2.7888069 -6.7609625 -23.036278 33405
-2.8667395 -6.8212957 -23.036156 33406
-2.9436135 -6.8808832 -23.027712 33407
-3.0238934 -6.9429007 -23.042467 33408
-3.1025839 -7.0037975 -23.04495 33409
-3.1807523 -7.0643287 -23.043049 33410
-3.2583575 -7.124464 -23.036776 33411
-3.334734 -7.1837206 -23.022211 33412
-3.4142509 -7.2452383 -23.026834 33413
-3.4932132 -7.306365 -23.027079 33414
-3.5742307 -7.3689823 -23.038618 33415
-3.6520092 -7.4292707 -23.030119 33416
-3.733247 -7.4920669 -23.040724 33417
-3.8139229 -7.5544677 -23.046946 33418
-3.8947124 -7.6169591 -23.052694 33419
-3.9748821 -7.6790113 -23.054075 33420
-4.0543904 -7.7405896 -23.051096 33421
-4.1369815 -7.80442 -23.063211 33422
-4.2127972 -7.8633218 -23.039875 33423
-4.3018579 -7.9318914 -23.082087 33424
-4.3761387 -7.9896822 -23.050087 33425
-4.4608188 -8.0550776 -23.068018 33426
-4.5374641 -8.114603 -23.046764 33427
-4.6157217 -8.1753111 -23.032804 33428
-4.7007732 -8.2410078 -23.049267 33429
-4.7834339 -8.3049603 -23.053648 33430
-4.8627038 -8.3664303 -23.042141 33431
-4.9508886 -8.4344625 -23.068615 33432
-5.0321178 -8.4973898 -23.063822 33433
-5.1106558 -8.5583401 -23.047049 33434
-5.1938248 -8.6227093 -23.048973 33435
-5.2837048 -8.6920385 -23.077171 33436
-5.3652678 -8.7552423 -23.070419 33437
-5.4507637 -8.8213577 -23.078444 33438
-5.5315027 -8.8839645 -23.066902 33439
-5.6132593 -8.9473305 -23.058689 33440
-5.6960726 -9.0114841 -23.053791 33441
-5.7850895 -9.0802431 -23.071152 33442
-5.872262 -9.147646 -23.080372 33443
-5.9564648 -9.2128553 -23.077711 33444
-6.0428791 -9.2797146 -23.082087 33445
-6.1251411 -9.3434982 -23.07085 33446
-6.2085266 -9.408123 -23.062889 33447
-6.2996716 -9.4785242 -23.080729 33448
-6.3843784 -9.5441475 -23.075472 33449
-6.4657917 -9.6073256 -23.058462 33450
-6.5597324 -9.6798401 -23.082106 33451
-6.6435938 -9.7448559 -23.071535 33452
-6.730998 -9.8125191 -23.071634 33453
-6.825593 -9.8855553 -23.093513 33454
-6.9085636 -9.9499292 -23.077627 33455
-6.9975672 -10.018812 -23.079779 33456
-7.0891471 -10.08963 -23.08877 33457
-7.1747789 -10.156012 -23.078697 33458
-7.2654381 -10.22616 -23.082851 33459
-7.3562632 -10.29644 -23.086424 33460
-7.4510455 -10.369692 -23.100431 33461
-7.5383906 -10.437387 -23.091812 33462
-7.6283989 -10.507084 -23.089968 33463
-7.71984 -10.577863 -23.091202 33464
-7.8127499 -10.649752 -23.095491 33465
-7.9098234 -10.724771 -23.11009 33466
-7.9950676 -10.790931 -23.091354 33467
-8.0884571 -10.863207 -23.093842 33468
-8.1765471 -10.931515 -23.081249 33469
-8.2674618 -11.001949 -23.075323 33470
-8.3751869 -11.085018 -23.112028 33471
-8.4692802 -11.157862 -23.112028 33472
-8.5607004 -11.228704 -23.104233 33473
-8.6579399 -11.30393 -23.110165 33474
-8.7424126 -11.369564 -23.083305 33475
-8.8530207 -11.454865 -23.120062 33476
-8.9493923 -11.529467 -23.120468 33477
-9.0385418 -11.598644 -23.102497 33478
-9.1411467 -11.677958 -23.11581 33479
-9.2319965 -11.748429 -23.100163 33480
-9.3319969 -11.825801 -23.10507 33481
-9.4215212 -11.895288 -23.084692 33482
-9.5356922 -11.983361 -23.119833 33483
-9.6363277 -12.061244 -23.122662 33484
-9.7324753 -12.135752 -23.114332 33485
-9.8287477 -12.210361 -23.10536 33486
-9.9235563 -12.283875 -23.092274 33487
-10.024851 -12.362291 -23.092409 33488
-10.134385 -12.446939 -23.109116 33489
-10.240976 -12.529377 -23.118143 33490
-10.339651 -12.605846 -23.10923 33491
-10.440102 -12.683666 -23.103075 33492
-10.552309 -12.770379 -23.120159 33493
-10.648137 -12.844724 -23.102331 33494
-10.764212 -12.934383 -23.124666 33495
-10.867099 -13.014085 -23.119011 33496
-10.97867 -13.100365 -23.129551 33497
-11.08194 -13.180374 -23.122414 33498
-11.185364 -13.260513 -23.114557 33499
-11.299378 -13.348675 -23.126099 33500
-11.397928 -13.42514 -23.106709 33501
-11.515936 -13.516349 -23.123322 33502
-11.612993 -13.591702 -23.099161 33503
-11.711885 -13.668451 -23.07766 33504
-11.846771 -13.772482 -23.121584 33505
-11.938799 -13.844049 -23.085361 33506
-12.065356 -13.941795 -23.110952 33507
-12.164863 -14.019048 -23.086443 33508
-12.288363 -14.114503 -23.103697 33509
-12.39554 -14.197591 -23.090714 33510
-12.50845 -14.285035 -23.0867 33511
-12.619687 -14.371223 -23.078625 33512
-12.727333 -14.454695 -23.06329 33513
-12.844597 -14.545475 -23.063255 33514
-12.962099 -14.636448 -23.062346 33515
-13.075994 -14.724695 -23.054169 33516
-13.20938 -14.827752 -23.076975 33517
-16.191525 -17.136625 -23.051447 33540
-16.334517 -17.247322 -23.051855 33541
-16.473433 -17.354923 -23.0453 33542
-16.621414 -17.469448 -23.049181 33543
-16.769733 -17.584246 -23.051844 33544
-16.909496 -17.692533 -23.041836 33545
-17.031656 -17.787409 -23.007895 33546
-17.200953 -17.918249 -23.032633 33547
-17.345984 -18.030598 -23.024832 33548
-17.511623 -18.15868 -23.041172 33549
-17.652733 -18.268063 -23.025282 33550
-17.814575 -18.393282 -23.033356 33551
-17.958492 -18.504835 -23.017845 33552
-18.118721 -18.628853 -23.020512 33553
-18.293154 -18.763733 -23.038336 33554
-18.444874 -18.881287 -23.027264 33555
-18.610819 -19.00972 -23.03129 33556
-18.777138 -19.138453 -23.033901 33557
-18.939131 -19.263897 -23.029694 33558
-19.094383 -19.384209 -23.01605 33559
-19.264076 -19.515568 -23.017159 33560
-19.443626 -19.654476 -23.027458 33561
-19.62122 -19.791908 -23.033541 33562
-19.789658 -19.922359 -23.02754 33563
-19.996819 -20.082426 -23.062054 33564
-20.151592 -20.202465 -23.037298 33565
-20.328327 -20.33931 -23.034613 33566
-20.486006 -20.461597 -23.009733 33567
-20.682863 -20.613865 -23.024637 33568
-20.867983 -20.757172 -23.025005 33569
-21.048584 -20.897041 -23.018663 33570
-21.249224 -21.052259 -23.030972 33571
-21.435518 -21.196522 -23.026392 33572
-21.609783 -21.331598 -23.007666 33573
-21.826607 -21.499256 -23.029726 33574
-22.024015 -21.652077 -23.030014 33575
-22.239367 -21.818653 -23.045765 33576
-22.422565 -21.96064 -23.02775 33577
-22.628746 -22.120234 -23.030024 33578
-22.858128 -22.297611 -23.05221 33579
-23.052553 -22.44825 -23.03861 33580
-23.277859 -22.622553 -23.051973 33581
-23.480703 -22.779675 -23.041874 33582
-27.332012 -25.76273 -22.869497 33599
-27.333685 -25.765886 -22.660999 33600
-27.361443 -25.78904 -22.473915 33601
-27.361364 -25.790836 -22.266052 33602
-27.471649 -25.877308 -22.143572 33603
-29.604206 -27.523529 -22.671555 33608
-29.606174 -27.526974 -22.456142 33609
-29.623796 -27.542431 -22.252911 33610
-30.616947 -28.308926 -22.517227 33612
-30.751207 -28.414 -22.390045 33613
-31.376015 -28.895847 -22.597282 33614
-30.456959 -28.191895 -21.752367 33615
-30.667461 -28.355524 -21.677555 33616
-31.488283 -28.990019 -21.78406 33618
-32.182755 -29.527588 -21.790571 33620
-32.834038 -30.030085 -21.981049 33621
-32.888126 -30.073675 -21.788654 33622
-33.664261 -30.67429 -21.814747 33624
-33.851929 -30.820602 -21.699612 33625
-34.229645 -31.115101 -21.466 33627
-36.067516 -32.538887 -21.355001 33632
-41.580315 -36.800751 -22.016737 33641
-40.506687 -35.976715 -21.218935 33642
-41.57473 -36.803528 -21.221214 33644
-53.796532 -46.265526 -21.175238 33662
-54.712898 -46.974808 -21.189428 33663
-80.470024 -66.922653 -20.315351 33684
-83.750092 -69.46772 -19.666996 33687
4.9225473 -0.8044796 -22.943933 33904
4.8337159 -0.87373424 -22.908916 33905
4.7509079 -0.93807411 -22.900352 33906
4.6730466 -0.99836981 -22.914476 33907
4.1964645 -1.3679928 -22.93935 33913
4.1173582 -1.429354 -22.942533 33914
4.038311 -1.4906733 -22.945263 33915
3.957289 -1.5536352 -22.935831 33916
3.8790698 -1.614285 -22.941542 33917
3.8002362 -1.6754513 -22.942898 33918
3.7208295 -1.7371016 -22.939886 33919
3.6415179 -1.7986822 -22.936415 33920
3.5610795 -1.8612127 -22.924644 33921
3.4885588 -1.9171405 -22.963408 33922
3.4094176 -1.9786015 -22.958593 33923
3.3315163 -2.0390325 -22.96118 33924
3.254221 -2.0989621 -22.96726 33925
3.1715159 -2.1634505 -22.933537 33926
3.0949321 -2.2228003 -22.942652 33927
3.0219574 -2.2791028 -22.978933 33928
2.9412575 -2.3419404 -22.95565 33929
2.8632207 -2.4025369 -22.951632 33930
2.7881184 -2.460645 -22.970873 33931
2.708786 -2.5223625 -22.954121 33932
2.6314144 -2.5824187 -22.952734 33933
2.5528021 -2.6435494 -22.939034 33934
2.4772792 -2.7020357 -22.95261 33935
2.4008985 -2.7612629 -22.957846 33936
2.3237429 -2.8211672 -22.95472 33937
2.2477937 -2.8800313 -22.963062 33938
2.1711006 -2.9395487 -22.963045 33939
2.0944514 -2.9990361 -22.962595 33940
2.0195394 -3.0569987 -22.981592 33941
1.9429133 -3.1164756 -22.980295 33942
1.8654033 -3.1767507 -22.966635 33943
1.788322 -3.236661 -22.956516 33944
1.7136149 -3.2944438 -22.977818 33945
1.6366379 -3.3542807 -22.966843 33946
1.5610497 -3.4128633 -22.975361 33947
1.4849503 -3.4719186 -22.975489 33948
1.4086521 -3.5311682 -22.971205 33949
1.3328418 -3.5899704 -22.974474 33950
1.2568359 -3.6489646 -22.973335 33951
1.1806763 -3.7081184 -22.967779 33952
1.1042333 -3.7675681 -22.953815 33953
1.0298257 -3.8250074 -22.987349 33954
0.95360392 -3.8842571 -22.976536 33955
0.87826997 -3.9426038 -22.989273 33956
0.80251139 -4.0013928 -22.989605 33957
0.7265594 -4.0604081 -22.981527 33958
0.65122372 -4.1187315 -22.997011 33959
0.57510304 -4.1779943 -22.976099 33960
0.50008786 -4.2358589 -23.014742 33961
0.42422473 -4.2948203 -23.004984 33962
0.34843886 -4.3537259 -22.99481 33963
0.27284145 -4.4123073 -23.004211 33964
0.19713044 -4.4712348 -22.985199 33965
0.12151659 -4.5298371 -22.993769 33966
0.045847535 -4.5884857 -23.001917 33967
-0.029907584 -4.6471682 -23.013649 33968
-0.10555363 -4.7059155 -23.008963 33969
-0.18141067 -4.7646852 -23.019859 33970
-0.25682163 -4.8233662 -23.002338 33971
-0.33273339 -4.8821855 -23.012398 33972
-0.40790081 -4.940722 -22.990046 33973
-0.48419607 -4.9997377 -23.011261 33974
-0.55947578 -5.0582957 -22.996073 33975
-0.63552141 -5.1172347 -23.004454 33976
-0.7113198 -5.1760578 -23.004417 33977
-0.78678715 -5.2347002 -22.995974 33978
-0.86313307 -5.2938471 -23.007082 33979
-0.93917286 -5.3528328 -23.009783 33980
-1.0148215 -5.4115915 -23.004076 33981
-1.091579 -5.4710336 -23.017904 33982
-1.1679711 -5.5302677 -23.023327 33983
-1.2428987 -5.5885863 -23.004387 33984
-1.3195878 -5.6480227 -23.012953 33985
-1.3955164 -5.7069817 -23.00913 33986
-1.4717376 -5.7661352 -23.008873 33987
-1.5489084 -5.8259206 -23.020136 33988
-1.6255398 -5.8853641 -23.023005 33989
-1.7015473 -5.9443989 -23.017487 33990
-1.7785957 -6.0041375 -23.023479 33991
-1.8549905 -6.0634451 -23.021088 33992
-1.9314018 -6.1227689 -23.018269 33993
-2.0066562 -6.1813073 -23.003111 33994
-2.0862911 -6.2428527 -23.031204 33995
-2.1615567 -6.3014078 -23.015194 33996
-2.2384791 -6.3611073 -23.014631 33997
-2.3172188 -6.4220781 -23.02949 33998
-2.3938079 -6.4815636 -23.024092 33999
-2.4732389 -6.5430427 -23.042015 34000
-2.5479741 -6.6012416 -23.019926 34001
-2.6251044 -6.6611223 -23.017193 34002
-2.7043176 -6.7224813 -23.029825 34003
-2.7810311 -6.7820816 -23.022264 34004
-2.860446 -6.843605 -23.033997 34005
-2.9372225 -6.903264 -23.02556 34006
-3.020242 -6.9673777 -23.06002 34007
-3.0959945 -7.0263209 -23.04282 34008
-3.1716833 -7.0852184 -23.025202 34009
-3.2521791 -7.1475658 -23.038599 34010
-3.3322043 -7.2095876 -23.0476 34011
-3.4104457 -7.2703352 -23.044365 34012
-3.4919732 -7.3334594 -23.06028 34013
-3.5696974 -7.3938498 -23.052223 34014
-3.6487846 -7.4552312 -23.051546 34015
-3.7272444 -7.5161648 -23.046507 34016
-3.8057384 -7.5771294 -23.041021 34017
-3.88498 -7.6386433 -23.038986 34018
-3.9650099 -7.700737 -23.04039 34019
-4.0473514 -7.764523 -23.053007 34020
-4.1298542 -7.8284392 -23.065132 34021
-4.206357 -7.8879848 -23.045687 34022
-4.2882867 -7.9514995 -23.052982 34023
-4.364768 -8.0110369 -23.032652 34024
-4.4509115 -8.0776558 -23.058361 34025
-4.5323734 -8.1408548 -23.060331 34026
-4.6114225 -8.2022924 -23.05023 34027
-4.6930375 -8.2656193 -23.051252 34028
-4.768703 -8.3245792 -23.024811 34029
-4.8539157 -8.3905678 -23.040293 34030
-4.9428849 -8.4593363 -23.070631 34031
-5.0240259 -8.5223484 -23.065847 34032
-5.0997305 -8.5813551 -23.037579 34033
-5.1864886 -8.6485262 -23.054848 34034
-5.2678046 -8.711688 -23.04863 34035
-5.3520432 -8.7770176 -23.053391 34036
-5.4364128 -8.842453 -23.057636 34037
-5.5179667 -8.9058132 -23.049944 34038
-5.6025543 -8.9714279 -23.053179 34039
-5.6892858 -9.038641 -23.063496 34040
-5.7710867 -9.1022053 -23.054306 34041
-5.8581028 -9.1696501 -23.063568 34042
-5.9463377 -9.2380104 -23.076069 34043
-6.028409 -9.3017979 -23.065361 34044
-6.1115894 -9.3664169 -23.057934 34045
-6.2002649 -9.4351339 -23.068827 34046
-6.2770391 -9.4949951 -23.037819 34047
-6.3703966 -9.5672207 -23.062662 34048
-6.4561691 -9.6338024 -23.060671 34049
-6.5431862 -9.7013187 -23.06189 34050
-6.6372352 -9.7740965 -23.084965 34051
-6.7187691 -9.8375378 -23.066423 34052
-6.8085346 -9.907136 -23.073446 34053
-6.9056082 -9.9822092 -23.102177 34054
-6.9825759 -10.042256 -23.067226 34055
-7.0727949 -10.112222 -23.072556 34056
-7.1668615 -10.185079 -23.088392 34057
-7.2574515 -10.255342 -23.092543 34058
-7.3419418 -10.321045 -23.077707 34059
-7.4340582 -10.392471 -23.084402 34060
-7.519969 -10.459252 -23.072163 34061
-7.6149688 -10.53286 -23.085014 34062
-7.7101984 -10.606652 -23.097233 34063
-7.7898674 -10.66877 -23.065069 34064
-7.8920403 -10.747795 -23.094301 34065
-7.9717674 -10.809969 -23.061089 34066
-8.0690079 -10.885308 -23.074528 34067
-8.1678534 -10.961869 -23.090927 34068
-8.2573204 -11.031384 -23.081388 34069
-8.3496513 -11.103065 -23.078484 34070
-8.4393167 -11.172747 -23.067789 34071
-8.5403843 -11.251022 -23.085215 34072
-8.6317406 -11.321993 -23.076889 34073
-8.7303963 -11.398473 -23.085829 34074
-8.8307285 -11.476229 -23.09766 34075
-8.9269142 -11.550867 -23.098139 34076
-9.0203152 -11.623417 -23.090878 34077
-9.1227655 -11.702802 -23.104237 34078
-9.2164736 -11.775601 -23.095701 34079
-9.3148327 -11.851919 -23.097111 34080
-9.4133749 -11.928385 -23.097857 34081
-9.5074844 -12.001514 -23.087416 34082
-9.6047993 -12.077071 -23.083349 34083
-9.7147551 -12.16219 -23.106535 34084
-9.8108902 -12.236876 -23.097603 34085
-9.9150734 -12.317657 -23.105387 34086
-10.016299 -12.396212 -23.105511 34087
-10.116105 -12.4737 -23.101482 34088
-10.21931 -12.553773 -23.103662 34089
-10.311294 -12.62536 -23.081062 34090
-10.429623 -12.716904 -23.112705 34091
-10.52849 -12.793721 -23.10244 34092
-10.627485 -12.870646 -23.091503 34093
-10.745073 -12.961665 -23.117289 34094
-10.844438 -13.038889 -23.104897 34095
-10.954134 -13.123953 -23.112114 34096
-11.057228 -13.204022 -23.105051 34097
-11.169108 -13.290764 -23.11408 34098
-11.267358 -13.36718 -23.095469 34099
-11.379682 -13.454277 -23.102938 34100
-11.469383 -13.524223 -23.066242 34101
-11.580308 -13.610283 -23.068867 34102
-11.680766 -13.688408 -23.050797 34103
-11.806443 -13.785688 -23.0783 34104
-11.910858 -13.866835 -23.065294 34105
-12.01722 -13.949472 -23.05484 34106
-12.112765 -14.023899 -23.023975 34107
-12.243277 -14.124907 -23.054508 34108
-12.361271 -14.216413 -23.061234 34109
-12.464643 -14.296816 -23.041115 34110
-12.584967 -14.390119 -23.049383 34111
-12.690508 -14.472189 -23.030945 34112
-12.81511 -14.568771 -23.043896 34113
-12.92479 -14.654011 -23.030262 34114
-13.04612 -14.748125 -23.03499 34115
-13.167728 -14.842463 -23.038797 34116
-13.285728 -14.934066 -23.035332 34117
-13.409797 -15.030304 -23.040464 34118
-13.524349 -15.119307 -23.028893 34119
-16.020796 -17.05654 -23.041758 34138
-16.148109 -17.155514 -23.022924 34139
-16.284317 -17.26129 -23.014748 34140
-16.447041 -17.387337 -23.040279 34141
-16.577251 -17.488564 -23.021116 34142
-16.718689 -17.598375 -23.015308 34143
-16.86705 -17.713497 -23.016945 34144
-17.017967 -17.830585 -23.02021 34145
-17.158028 -17.939386 -23.008028 34146
-17.309566 -18.05698 -23.008852 34147
-17.472719 -18.18347 -23.022488 34148
-17.609077 -18.289486 -23.001116 34149
-17.782051 -18.423517 -23.023281 34150
-17.946358 -18.550941 -23.032846 34151
-18.07662 -18.652334 -22.999552 34152
-18.236965 -18.776752 -23.001001 34153
-18.397657 -18.901455 -23.001099 34154
-18.561014 -19.028217 -23.002562 34155
-18.736393 -19.164196 -23.016205 34156
-18.884096 -19.279003 -22.995918 34157
-19.076706 -19.428207 -23.025482 34158
-19.232082 -19.548923 -23.010538 34159
-19.394831 -19.675297 -23.002283 34160
-19.574533 -19.814674 -23.011181 34161
-19.761827 -19.959885 -23.026419 34162
-19.916023 -20.079756 -23.003292 34163
-20.089684 -20.214556 -22.999752 34164
-20.254026 -20.342234 -22.984324 34165
-20.457432 -20.499863 -23.008818 34166
-20.639482 -20.641148 -23.008356 34167
-20.819473 -20.780867 -23.003746 34168
-21.00226 -20.922752 -23.000103 34169
-21.178038 -21.05928 -22.987272 34170
-21.388668 -21.222549 -23.008127 34171
-21.560215 -21.355867 -22.987047 34172
-21.774261 -21.521797 -23.006783 34173
-21.961414 -21.667122 -22.997353 34174
-22.153912 -21.816565 -22.99119 34175
-22.364349 -21.97979 -23.000444 34176
-22.582821 -22.1492 -23.015091 34177
-22.784119 -22.305454 -23.010805 34178
-22.995947 -22.46981 -23.014332 34179
-23.236206 -22.65601 -23.04224 34180
-23.456669 -22.827038 -23.048891 34181
-23.641771 -22.970943 -23.020441 34182
-23.873337 -23.150537 -23.032642 34183
-24.095121 -23.322647 -23.033363 34184
-26.905878 -25.506323 -22.767864 34197
-26.912743 -25.513485 -22.565434 34198
-26.92411 -25.524101 -22.367565 34199
-26.931927 -25.531979 -22.167871 34200
-26.928068 -25.530867 -21.960133 34201
-29.259373 -27.333668 -22.665268 34206
-29.308161 -27.373161 -22.485165 34207
-29.248888 -27.329498 -22.2276 34208
-30.263819 -28.114496 -22.51803 34210
-30.023996 -27.935787 -21.701143 34213
-30.311998 -28.159462 -21.682287 34214
-31.552189 -29.116318 -22.298368 34215
-31.451267 -29.042629 -21.787889 34217
-31.803497 -29.315895 -21.796574 34218
-32.405132 -29.783331 -21.736908 34220
-33.309326 -30.481903 -22.081467 34221
-33.210121 -30.407547 -21.790955 34222
-33.388729 -30.547222 -21.673546 34223
-33.778412 -30.849543 -21.682981 34224
-33.299137 -30.482296 -21.165686 34225
-33.499191 -30.638508 -21.059612 34226
-36.050892 -32.611557 -21.851845 34229
-36.495094 -32.958355 -21.622753 34231
-40.980453 -36.435715 -22.006086 34239
-41.060116 -36.49955 -21.783659 34240
-40.826607 -36.32177 -21.405588 34241
-40.995758 -36.454636 -21.228773 34242
-52.994942 -45.763687 -21.54199 34259
-53.133495 -45.873627 -21.275217 34260
-53.17712 -45.910233 -20.972151 34261
-54.207424 -46.709248 -21.031973 34262
-81.683174 -68.039474 -20.167608 34285
-80.55088 -67.167328 -19.443527 34286
4.9169483 -0.81273425 -22.922388 34503
4.8389525 -0.87316906 -22.937462 34504
4.756074 -0.93761098 -22.928932 34505
4.6733475 -1.0019386 -22.919905 34506
4.1968145 -1.3717902 -22.944811 34512
4.1170111 -1.4337721 -22.944107 34513
4.0386772 -1.4945462 -22.950737 34514
3.9569855 -1.5581098 -22.937407 34515
3.8787873 -1.6187869 -22.943119 34516
3.7986727 -1.6810629 -22.936659 34517
3.7193151 -1.7427204 -22.933641 34518
3.6425486 -1.8022265 -22.945831 34519
3.564548 -1.8627661 -22.949749 34520
3.4847994 -1.9247754 -22.941452 34521
3.4086785 -1.9837562 -22.956253 34522
3.3291025 -2.045639 -22.947048 34523
3.2513254 -2.1060219 -22.949181 34524
3.1735978 -2.1663702 -22.950871 34525
3.0943332 -2.2280238 -22.940304 34526
3.0208764 -2.2847762 -22.972643 34527
2.9402256 -2.3476224 -22.949352 34528
2.8637023 -2.4069791 -22.957174 34529
2.7843332 -2.468766 -22.940863 34530
2.7102051 -2.5260911 -22.967579 34531
2.6314712 -2.587357 -22.954334 34532
2.5550506 -2.6466503 -22.96043 34533
2.4782186 -2.7063029 -22.962139 34534
2.4014244 -2.7659299 -22.963413 34535
2.3230968 -2.8268962 -22.948393 34536
2.2487135 -2.8844423 -22.972607 34537
2.1698201 -2.9459283 -22.948772 34538
2.0939505 -3.004781 -22.956263 34539
2.0177329 -3.0639439 -22.959358 34540
1.9421836 -3.1225188 -22.96998 34541
1.8662896 -3.1814017 -22.976208 34542
1.7903903 -3.240293 -22.982012 34543
1.7125043 -3.3009844 -22.959526 34544
1.6377738 -3.35883 -22.980413 34545
1.5606295 -3.4188809 -22.965027 34546
1.484592 -3.477931 -22.965151 34547
1.4092693 -3.5363207 -22.976818 34548
1.3338954 -3.594754 -22.988068 34549
1.2580694 -3.6536148 -22.990921 34550
1.1816888 -3.7130194 -22.981382 34551
1.1057454 -3.7720153 -22.979403 34552
1.0299983 -3.8308263 -22.980991 34553
0.95382512 -3.8900814 -22.970181 34554
0.8789348 -3.9480162 -22.994904 34555
0.8031832 -4.0068426 -22.995235 34556
0.72734278 -4.0657778 -22.991158 34557
0.65118331 -4.1251106 -22.970665 34558
0.57571858 -4.1836519 -22.977737 34559
0.5002811 -4.2421403 -22.988392 34560
0.42483139 -4.3006048 -23.002628 34561
0.3490802 -4.3595266 -22.992453 34562
0.27353919 -4.4180703 -23.005856 34563
0.19788885 -4.4768119 -23.006844 34564
0.12224352 -4.5355892 -23.003414 34565
0.046567559 -4.5942855 -23.011564 34566
-0.028994679 -4.653079 -22.9993 34567
-0.10470617 -4.7118101 -23.006615 34568
-0.18010259 -4.7705197 -22.989515 34569
-0.25575602 -4.8292499 -22.991995 34570
-0.33160579 -4.8880639 -23.002054 34571
-0.40732467 -4.9468527 -23.003696 34572
-0.48317647 -5.0057116 -23.008921 34573
-0.55790293 -5.0640283 -22.977747 34574
-0.6340028 -5.1230154 -22.990126 34575
-0.70988262 -5.1819081 -22.994093 34576
-0.78648531 -5.24122 -23.013617 34577
-0.86194181 -5.2999005 -23.004755 34578
-0.93834424 -5.3591375 -23.015444 34579
-1.014411 -5.418191 -23.017721 34580
-1.0896063 -5.4767165 -23.003611 34581
-1.1654425 -5.535635 -23.001057 34582
-1.2412813 -5.5945587 -22.998083 34583
-1.3179233 -5.6540012 -23.006653 34584
-1.393522 -5.7127829 -22.998848 34585
-1.4711555 -5.7728939 -23.018518 34586
-1.5470985 -5.8319149 -23.013849 34587
-1.6217482 -5.8900785 -22.992836 34588
-1.6999769 -5.9506278 -23.015188 34589
-1.7759421 -6.0096774 -23.009251 34590
-1.8533509 -6.0697069 -23.018797 34591
-1.9289742 -6.1285338 -23.008034 34592
-2.0069017 -6.1889372 -23.020687 34593
-2.0829301 -6.2480516 -23.013044 34594
-2.1601975 -6.3080225 -23.016884 34595
-2.2370987 -6.3677497 -23.016323 34596
-2.3149271 -6.4281282 -23.023256 34597
-2.3900898 -6.4866576 -23.005983 34598
-2.4699044 -6.5484428 -23.02788 34599
-2.5450516 -6.606967 -23.009756 34600
-2.6216195 -6.666491 -23.003078 34601
-2.7022972 -6.7289228 -23.027573 34602
-2.7805567 -6.7896605 -23.03186 34603
-2.8578148 -6.8496971 -23.027811 34604
-2.9328809 -6.9081774 -23.007557 34605
-3.0118351 -6.9694309 -23.014462 34606
-3.0903111 -7.0303531 -23.016979 34607
-3.1724296 -7.0938921 -23.042643 34608
-3.2517407 -7.1554356 -23.048168 34609
-3.3261726 -7.21348 -23.021828 34610
-3.4106536 -7.2787604 -23.057846 34611
-3.4857092 -7.3372602 -23.034559 34612
-3.5639806 -7.3980846 -23.030443 34613
-3.641613 -7.4584513 -23.021967 34614
-3.7220132 -7.5208292 -23.028685 34615
-3.8039324 -7.5843201 -23.042742 34616
-3.8802872 -7.6437788 -23.025105 34617
-3.9631605 -7.707983 -23.042114 34618
-4.0447369 -7.771256 -23.05084 34619
-4.1226649 -7.8318777 -23.039637 34620
-4.2029018 -7.8941898 -23.039646 34621
-4.2824335 -7.9559946 -23.035307 34622
-4.3620129 -8.0178404 -23.030508 34623
-4.4473109 -8.0838833 -23.052349 34624
-4.5246072 -8.1440706 -23.034994 34625
-4.6010323 -8.20362 -23.013336 34626
-4.685041 -8.2687464 -23.025978 34627
-4.7683601 -8.3333778 -23.034258 34628
-4.8500719 -8.3968344 -23.034336 34629
-4.930984 -8.4597092 -23.030085 34630
-5.0128608 -8.523304 -23.029198 34631
-5.0984888 -8.5896759 -23.043159 34632
-5.1787314 -8.6520796 -23.033615 34633
-5.2599468 -8.7152081 -23.027431 34634
-5.3488598 -8.7840414 -23.051317 34635
-5.4322257 -8.8487797 -23.05176 34636
-5.5117674 -8.9106913 -23.036461 34637
-5.6022491 -8.9807224 -23.06254 34638
-5.6809206 -9.0420008 -23.042461 34639
-5.7728295 -9.1131163 -23.071234 34640
-5.8629761 -9.1829376 -23.091835 34641
-5.9345269 -9.2389412 -23.043798 34642
-6.0185776 -9.304244 -23.040695 34643
-6.105938 -9.3720188 -23.048389 34644
-6.1923771 -9.4391165 -23.051771 34645
-6.2712631 -9.5005932 -23.028313 34646
-6.3678942 -9.5753088 -23.06443 34647
-6.4558921 -9.6435986 -23.069931 34648
-6.5372229 -9.7069197 -23.052441 34649
-6.6231556 -9.7736826 -23.049404 34650
-6.7138433 -9.8440084 -23.060743 34651
-6.8047352 -9.9144974 -23.071499 34652
-6.8886933 -9.9798107 -23.059385 34653
-6.9738975 -10.046062 -23.05047 34654
-7.0761714 -10.125102 -23.092844 34655
-7.1567812 -10.187929 -23.068008 34656
-7.2472687 -10.258165 -23.072201 34657
-7.3379221 -10.328534 -23.075813 34658
-7.422411 -10.394288 -23.060472 34659
-7.5158749 -10.466784 -23.070284 34660
-7.6095476 -10.539447 -23.079485 34661
-7.6930008 -10.604445 -23.058842 34662
-7.7843475 -10.675379 -23.05957 34663
-7.879828 -10.749429 -23.070627 34664
-7.9741907 -10.822649 -23.077414 34665
-8.0633354 -10.891955 -23.069078 34666
-8.1594 -10.966476 -23.078262 34667
-8.254303 -11.040133 -23.083193 34668
-8.3410511 -11.10766 -23.065882 34669
-8.4376535 -11.182615 -23.073191 34670
-8.5302181 -11.254539 -23.06909 34671
-8.6271935 -11.329796 -23.075121 34672
-8.7186136 -11.400875 -23.066217 34673
-8.8115873 -11.473132 -23.060282 34674
-8.9207878 -11.557641 -23.092844 34675
-9.0170908 -11.632431 -23.092695 34676
-9.101655 -11.69837 -23.063591 34677
-9.2056932 -11.779018 -23.079868 34678
-9.3069925 -11.857611 -23.088369 34679
-9.3917494 -11.923714 -23.057514 34680
-9.5041294 -12.0107 -23.089243 34681
-9.6060629 -12.089804 -23.095671 34682
-9.7019777 -12.164367 -23.087433 34683
-9.7995872 -12.24022 -23.082035 34684
-9.8989286 -12.317391 -23.079449 34685
-10.008016 -12.40195 -23.096958 34686
-10.104539 -12.477011 -23.08605 34687
-10.206039 -12.555846 -23.084829 34688
-10.315879 -12.64101 -23.100086 34689
-10.419441 -12.72143 -23.10084 34690
-10.514923 -12.795738 -23.083776 34691
-10.630491 -12.885277 -23.106985 34692
-10.722913 -12.957282 -23.081738 34693
-10.833956 -13.043413 -23.093185 34694
-10.936766 -13.123314 -23.086916 34695
-11.046594 -13.208549 -23.093418 34696
-11.151497 -13.290056 -23.089037 34697
-11.240942 -13.35984 -23.053736 34698
-11.354834 -13.448191 -23.064674 34699
-11.467253 -13.535434 -23.07144 34700
-11.563987 -13.610777 -23.047459 34701
-11.687516 -13.706482 -23.072552 34702
-11.789902 -13.786137 -23.057035 34703
-11.906847 -13.876864 -23.067165 34704
-11.991379 -13.942966 -23.017292 34705
-12.121493 -14.043728 -23.048777 34706
-12.22814 -14.126658 -23.036797 34707
-12.349735 -14.220969 -23.050095 34708
-12.456757 -14.304207 -23.036509 34709
-12.569536 -14.391833 -23.03186 34710
-12.690054 -14.485359 -23.03928 34711
-12.793801 -14.566135 -23.016861 34712
-12.90907 -14.655689 -23.012932 34713
-13.034137 -14.752715 -23.024111 34714
-13.146028 -14.83972 -23.012051 34715
-13.281341 -14.944576 -23.03723 34716
-13.383935 -15.024523 -23.007591 34717
-13.506178 -15.119444 -23.008741 34718
-13.618822 -15.207067 -22.993258 34719
-13.753418 -15.311429 -23.011364 34720
-13.878427 -15.408499 -23.01281 34721
-15.976809 -17.038313 -22.990866 34737
-16.121262 -17.150452 -22.995638 34738
-16.263861 -17.261192 -22.996319 34739
-16.419907 -17.382221 -23.013239 34740
-16.538992 -17.47501 -22.979759 34741
-16.695702 -17.596577 -22.994265 34742
-16.841726 -17.709991 -22.993137 34743
-16.990284 -17.825357 -22.993664 34744
-17.11902 -17.925573 -22.967415 34745
-17.290598 -18.058582 -22.993864 34746
-17.431076 -18.167809 -22.979433 34747
-17.592182 -18.292837 -22.989082 34748
-17.742294 -18.409466 -22.983421 34749
-17.890411 -18.524584 -22.973742 34750
-18.054865 -18.652222 -22.982189 34751
-18.210489 -18.773117 -22.978228 34752
-18.375679 -18.901352 -22.983917 34753
-18.527308 -19.019218 -22.971842 34754
-18.686199 -19.142658 -22.966648 34755
-18.854767 -19.273533 -22.970915 34756
-19.019009 -19.401108 -22.968359 34757
-19.188307 -19.532574 -22.969751 34758
-19.369823 -19.673418 -22.983 34759
-19.523237 -19.792744 -22.962873 34760
-19.703144 -19.93239 -22.970455 34761
-19.895452 -20.081566 -22.98958 34762
-20.042545 -20.196091 -22.95742 34763
-20.233257 -20.344078 -22.970776 34764
-20.419588 -20.488724 -22.977272 34765
-20.608772 -20.635578 -22.984697 34766
-20.800831 -20.784653 -22.993004 34767
-20.971275 -20.917171 -22.976719 34768
-21.146917 -21.053692 -22.964027 34769
-21.364809 -21.222649 -22.992567 34770
-21.538721 -21.357876 -22.974085 34771
-21.712906 -21.493332 -22.954098 34772
-21.93223 -21.663452 -22.97714 34773
-22.132107 -21.818663 -22.978489 34774
-22.314827 -21.960724 -22.960913 34775
-22.540653 -22.135899 -22.983097 34776
-22.754412 -22.301834 -22.991108 34777
-22.978785 -22.475939 -23.00679 34778
-23.17317 -22.627037 -22.991714 34779
-23.380638 -22.788204 -22.986792 34780
-23.611536 -22.967388 -23.001261 34781
-23.814728 -23.125309 -22.987755 34782
-24.041445 -23.301329 -22.993433 34783
-24.278975 -23.48568 -23.006304 34784
-24.506676 -23.662498 -23.00774 34785
-26.532936 -25.237171 -22.89072 34794
-26.567268 -25.265469 -22.711189 34795
-26.568769 -25.268505 -22.505919 34796
-26.604237 -25.297661 -22.328758 34797
-26.534098 -25.24556 -22.069019 34798
-28.851295 -27.038424 -22.802507 34803
-28.867889 -27.053154 -22.600006 34804
-28.897327 -27.077768 -22.407789 34805
-28.876574 -27.063728 -22.179688 34806
-29.659565 -27.67448 -21.885733 34810
-29.694214 -27.703114 -21.696356 34811
-30.286213 -28.163076 -21.673157 34813
-30.871662 -28.618107 -21.632837 34815
-31.402573 -29.029217 -21.764297 34816
-31.9603 -29.461052 -21.906746 34817
-32.971371 -30.242367 -22.333633 34818
-32.726627 -30.057852 -21.723652 34820
-32.938835 -30.223503 -21.630661 34821
-32.917484 -30.209095 -21.392109 34822
-33.728477 -30.836468 -21.660961 34823
-34.278801 -31.26292 -21.763021 34824
-34.701473 -31.590992 -21.782709 34825
-35.564632 -32.263161 -21.580833 34828
-36.333889 -32.860943 -21.540598 34830
-36.728001 -33.167202 -21.51951 34831
-52.565311 -45.46487 -21.702505 34857
-52.565052 -45.467567 -21.384722 34858
-52.315102 -45.277199 -20.972986 34859
-53.954895 -46.550903 -20.94751 34861
-80.088409 -66.852585 -20.261398 34882
-79.728943 -66.578354 -19.71958 34883
-79.687843 -66.550674 -19.25514 34884
-104.23988 -85.620689 -18.950174 34894
-104.0347 -85.466995 -18.330067 34895
4.9146247 -0.84585989 -22.947178 35110
4.8342986 -0.9085927 -22.950712 35111
4.7499933 -0.97462189 -22.934477 35112
4.6746554 -1.0332465 -22.96023 35113
4.1893492 -1.4127009 -22.934826 35119
4.1105146 -1.4742718 -22.938005 35120
4.0331173 -1.5346494 -22.948523 35121
3.956404 -1.5944602 -22.962503 35122
3.8790088 -1.6548449 -22.972143 35123
3.7970786 -1.7190365 -22.953983 35124
3.7210712 -1.778271 -22.970547 35125
3.6387987 -1.8427761 -22.947521 35126
3.5640638 -1.9009504 -22.971041 35127
3.483283 -1.9642247 -22.954918 35128
3.405591 -2.0249035 -22.957949 35129
3.3302193 -2.0836248 -22.976257 35130
3.2492394 -2.1471052 -22.954819 35131
3.1706359 -2.2085838 -22.948643 35132
3.09636 -2.2663865 -22.973528 35133
3.0209455 -2.3251576 -22.990126 35134
2.9394693 -2.3891177 -22.95896 35135
2.8626494 -2.4491074 -22.962843 35136
2.7853866 -2.5094848 -22.962341 35137
2.7086415 -2.5694237 -22.965355 35138
2.6305914 -2.6304994 -22.956068 35139
2.5539556 -2.6903615 -22.958208 35140
2.4777751 -2.7498348 -22.963879 35141
2.4028208 -2.8082411 -22.981014 35142
2.3246627 -2.8694553 -22.966007 35143
2.2485452 -2.9288914 -22.970396 35144
2.1720779 -2.9886425 -22.970387 35145
2.0960054 -3.0480514 -22.973921 35146
2.018939 -3.1083536 -22.965107 35147
1.9422981 -3.1682904 -22.959833 35148
1.8685195 -3.2256551 -22.989931 35149
1.7916114 -3.2858458 -22.979828 35150
1.7131157 -3.3475082 -22.945402 35151
1.6399952 -3.4042571 -22.986204 35152
1.5638233 -3.4638095 -22.982782 35153
1.488431 -3.5226436 -22.990894 35154
1.4121028 -3.5823641 -22.982635 35155
1.3358612 -3.6420209 -22.973951 35156
1.2613074 -3.7000604 -22.996761 35157
1.1856908 -3.7591236 -22.999205 35158
1.1095643 -3.8187025 -22.989252 35159
1.0344831 -3.8772416 -23.002834 35160
0.95875001 -3.936445 -23.000025 35161
0.88226813 -3.9964652 -22.972824 35162
0.80716878 -4.0550303 -22.985153 35163
0.73210609 -4.1135335 -23.001062 35164
0.65631914 -4.1728706 -22.988579 35165
0.58132052 -4.2312551 -23.011656 35166
0.50536138 -4.2908869 -22.982338 35167
0.43005633 -4.3496699 -22.988586 35168
0.35492957 -4.4080911 -23.018415 35169
0.27939224 -4.4672155 -23.007835 35170
0.2039125 -4.5264125 -22.984835 35171
0.12849951 -4.5849557 -23.025414 35172
0.053070188 -4.6440077 -23.013578 35173
-0.022342086 -4.7029738 -23.009325 35174
-0.097865224 -4.7619176 -23.016651 35175
-0.17301035 -4.8208351 -22.995564 35176
-0.24868584 -4.8798304 -23.010056 35177
-0.32410908 -4.9387832 -23.008131 35178
-0.39942026 -4.9976912 -23.001789 35179
-0.47550654 -5.0569429 -23.023018 35180
-0.55083621 -5.1158733 -23.015837 35181
-0.62626886 -5.1748495 -23.012238 35182
-0.70058465 -5.233222 -22.980251 35183
-0.77742922 -5.2929688 -23.011782 35184
-0.85302413 -5.3520465 -23.010923 35185
-0.92862797 -5.4111342 -23.009645 35186
-1.0038135 -5.4699755 -22.999962 35187
-1.0803051 -5.5296144 -23.013811 35188
-1.1569105 -5.5893459 -23.027229 35189
-1.231854 -5.6480479 -23.0123 35190
-1.3080518 -5.7075443 -23.016895 35191
-1.383742 -5.7667241 -23.01309 35192
-1.4603139 -5.8264837 -23.020815 35193
-1.5363476 -5.8859024 -23.020147 35194
-1.6117606 -5.9449148 -23.011093 35195
-1.689153 -6.0052519 -23.025497 35196
-1.7645785 -6.0642824 -23.015598 35197
-1.8425075 -6.12501 -23.03311 35198
-1.9183309 -6.1843219 -23.026335 35199
-1.9937521 -6.243361 -23.015163 35200
-2.0711501 -6.303761 -23.023426 35201
-2.1482258 -6.3639507 -23.027279 35202
-2.2257967 -6.4244943 -23.034662 35203
-2.3034592 -6.4851131 -23.041607 35204
-2.377543 -6.5432405 -23.01642 35205
-2.4557457 -6.6042519 -23.026457 35206
-2.5330904 -6.6646724 -23.028135 35207
-2.6089945 -6.7240844 -23.017513 35208
-2.6874366 -6.7852955 -23.026222 35209
-2.7665143 -6.8469706 -23.038425 35210
-2.8414068 -6.9056783 -23.018616 35211
-2.9217489 -6.9682751 -23.037809 35212
-3.0000076 -7.029398 -23.040777 35213
-3.0789232 -7.0910001 -23.047234 35214
-3.154969 -7.1505513 -23.033567 35215
-3.2340157 -7.212265 -23.039127 35216
-3.3125389 -7.273612 -23.040302 35217
-3.3898618 -7.3340988 -23.03318 35218
-3.4723806 -7.3983526 -23.056974 35219
-3.5511584 -7.4599104 -23.056776 35220
-3.6279762 -7.5200529 -23.044392 35221
-3.7068405 -7.5816879 -23.043295 35222
-3.7857645 -7.6433725 -23.041744 35223
-3.864033 -7.704586 -23.035839 35224
-3.9445169 -7.7674255 -23.041174 35225
-4.0214014 -7.8276405 -23.026569 35226
-4.1088314 -7.8955841 -23.065977 35227
-4.1850805 -7.955348 -23.046564 35228
-4.2659636 -8.0185175 -23.050007 35229
-4.3429732 -8.0788469 -23.03359 35230
-4.427227 -8.1445122 -23.051588 35231
-4.507576 -8.2073135 -23.049732 35232
-4.5854917 -8.2683287 -23.035812 35233
-4.6659417 -8.3312178 -23.033024 35234
-4.7507648 -8.3973465 -23.049034 35235
-4.8314123 -8.4603987 -23.045277 35236
-4.9121237 -8.5235062 -23.041042 35237
-4.9983025 -8.5906725 -23.05937 35238
-5.0719008 -8.6485205 -23.023476 35239
-5.1638942 -8.7200222 -23.063778 35240
-5.2421513 -8.7813387 -23.04611 35241
-5.323246 -8.8447685 -23.039452 35242
-5.4082599 -8.9111204 -23.047571 35243
-5.4953895 -8.9790583 -23.062784 35244
-5.5747814 -9.0412445 -23.04702 35245
-5.6561809 -9.1049309 -23.038391 35246
-5.7508726 -9.1785412 -23.078585 35247
-5.8284025 -9.2393579 -23.053766 35248
-5.9142294 -9.3063755 -23.058762 35249
-5.9949126 -9.3695564 -23.044344 35250
-6.0820312 -9.4375572 -23.052069 35251
-6.171484 -9.5073156 -23.066774 35252
-6.2512817 -9.5698547 -23.047087 35253
-6.3432665 -9.641531 -23.068205 35254
-6.4254103 -9.705843 -23.055008 35255
-6.5155306 -9.776144 -23.067499 35256
-6.601264 -9.8431635 -23.064474 35257
-6.688261 -9.9111404 -23.06465 35258
-6.7777309 -9.9809847 -23.071716 35259
-6.8590698 -10.044726 -23.052212 35260
-6.9428015 -10.110272 -23.03964 35261
-7.0399036 -10.185886 -23.067272 35262
-7.1348791 -10.259913 -23.086859 35263
-7.2202225 -10.3267 -23.076307 35264
-7.3018785 -10.390716 -23.054186 35265
-7.3923569 -10.461384 -23.057301 35266
-7.480442 -10.530259 -23.05249 35267
-7.5789347 -10.606995 -23.07641 35268
-7.6725321 -10.680048 -23.085043 35269
-7.7571421 -10.746327 -23.067535 35270
-7.8510513 -10.819637 -23.07498 35271
-7.945159 -10.893107 -23.081802 35272
-8.0367594 -10.964693 -23.080755 35273
-8.1325903 -11.039487 -23.089958 35274
-8.2190132 -11.107175 -23.073256 35275
-8.3110199 -11.179095 -23.070419 35276
-8.405962 -11.253247 -23.074173 35277
-8.4954395 -11.323271 -23.062946 35278
-8.5978146 -11.403072 -23.083353 35279
-8.6933069 -11.477671 -23.085192 35280
-8.784627 -11.549118 -23.075701 35281
-8.8848114 -11.627295 -23.086948 35282
-8.9764004 -11.698963 -23.076223 35283
-9.0695667 -11.771837 -23.068439 35284
-9.1793194 -11.857307 -23.098879 35285
-9.2713394 -11.929331 -23.086254 35286
-9.3695288 -12.006048 -23.087084 35287
-9.4556332 -12.073593 -23.059195 35288
-9.5679941 -12.161096 -23.090229 35289
-9.6604977 -12.233521 -23.075083 35290
-9.7687721 -12.317945 -23.09413 35291
-9.8631268 -12.391796 -23.081154 35292
-9.9591684 -12.466938 -23.071011 35293
-10.060142 -12.545842 -23.070585 35294
-10.169383 -12.631049 -23.086687 35295
-10.272409 -12.711539 -23.088251 35296
-10.385477 -12.799686 -23.109657 35297
-10.480714 -12.874266 -23.092628 35298
-10.586013 -12.956518 -23.095417 35299
-10.684822 -13.033836 -23.083858 35300
-10.793877 -13.118973 -23.091969 35301
-10.889597 -13.193956 -23.072235 35302
-10.992226 -13.274214 -23.065348 35303
-11.107064 -13.363798 -23.081285 35304
-11.203152 -13.439086 -23.059479 35305
-11.309768 -13.522417 -23.057087 35306
-11.418333 -13.607247 -23.057268 35307
-11.516508 -13.684155 -23.036718 35308
-11.623652 -13.76792 -23.03207 35309
-11.741718 -13.86004 -23.046486 35310
-11.852899 -13.946912 -23.046829 35311
-11.951609 -14.024267 -23.023359 35312
-12.064975 -14.112829 -23.025415 35313
-12.17491 -14.198781 -23.020103 35314
-12.296111 -14.29336 -23.033524 35315
-12.395344 -14.371151 -23.007076 35316
-12.509574 -14.46042 -23.005823 35317
-12.62027 -14.546999 -22.997272 35318
-12.746266 -14.645296 -23.013628 35319
-12.863104 -14.736598 -23.012983 35320
-12.974435 -14.823697 -23.001883 35321
-13.08786 -14.912409 -22.993145 35322
-13.211138 -15.008677 -22.999432 35323
-13.33665 -15.10667 -23.007929 35324
-13.437038 -15.185431 -22.974493 35325
-13.564984 -15.285313 -22.98432 35326
-13.683359 -15.377875 -22.977501 35327
-13.817852 -15.482803 -22.994732 35328
-13.944722 -15.581903 -22.998463 35329
-14.087952 -15.693561 -23.025972 35330
-14.195267 -15.777694 -22.996778 35331
-15.924623 -17.129007 -22.99568 35344
-16.060045 -17.23489 -22.988825 35345
-16.191368 -17.337635 -22.975063 35346
-16.342556 -17.455664 -22.986364 35347
-16.489733 -17.570625 -22.990629 35348
-16.630634 -17.680779 -22.985052 35349
-16.765163 -17.786043 -22.969738 35350
-16.922136 -17.908585 -22.981865 35351
-17.057171 -18.014267 -22.964277 35352
-17.203619 -18.128742 -22.959743 35353
-17.366117 -18.255587 -22.973703 35354
-17.519989 -18.375807 -22.975073 35355
-17.665106 -18.489304 -22.963993 35356
-17.831007 -18.618816 -22.976717 35357
-17.988155 -18.741611 -22.976957 35358
-18.147945 -18.866451 -22.978628 35359
-18.294226 -18.980907 -22.962507 35360
-18.45928 -19.109837 -22.966993 35361
-18.613071 -19.230106 -22.956497 35362
-18.783495 -19.363207 -22.963621 35363
-18.954313 -19.496632 -22.969273 35364
-19.118456 -19.624926 -22.96542 35365
-19.287653 -19.757133 -22.96549 35366
-19.461956 -19.893295 -22.969397 35367
-19.634262 -20.027935 -22.969152 35368
-19.802147 -20.159187 -22.962173 35369
-19.975149 -20.294399 -22.958963 35370
-20.160549 -20.43919 -22.967237 35371
-20.322195 -20.565681 -22.948044 35372
-20.518063 -20.718586 -22.963448 35373
-20.702236 -20.862488 -22.964312 35374
-20.877018 -20.999168 -22.953386 35375
-21.059475 -21.141781 -22.948523 35376
-21.264442 -21.301788 -22.964699 35377
-21.457561 -21.452673 -22.966507 35378
-21.658524 -21.609631 -22.974056 35379
-21.842525 -21.753517 -22.962469 35380
-22.039335 -21.90731 -22.961569 35381
-22.246555 -22.069164 -22.968689 35382
-22.449211 -22.227516 -22.969061 35383
-22.669931 -22.399836 -22.984545 35384
-22.873468 -22.55891 -22.981155 35385
-23.079943 -22.720276 -22.978321 35386
-23.307188 -22.897709 -22.992638 35387
-23.511978 -23.057812 -22.983576 35388
-23.735067 -23.232082 -22.989109 35389
-23.958635 -23.406742 -22.992588 35390
-24.192974 -23.589752 -23.003288 35391
-24.417492 -23.765194 -23.002583 35392
-26.104387 -25.085058 -22.818945 35400
-26.09066 -25.076387 -22.602011 35401
-26.094574 -25.081352 -22.400766 35402
