# .PCD v0.7 - Point Cloud Data file format
VERSION 0.7
FIELDS x y z intensity
SIZE 4 4 4 4
TYPE F F F F
COUNT 1 1 1 1
WIDTH 598
HEIGHT 1
VIEWPOINT 0 0 0 1 0 0 0
POINTS 598
DATA ascii
-67.67218 58.083626 -12.588412 157087
-67.687881 58.090424 -13.03406 157088
-67.682938 58.081707 -13.477339 157089
-67.666908 58.064659 -13.919339 157090
-67.681076 58.070297 -14.366225 157091
-67.6651 58.053284 -14.808927 157092
-67.663429 58.046997 -15.25427 157093
-67.657005 58.037151 -15.699275 157094
-67.639511 58.018982 -16.142765 157095
-67.642609 58.016273 -16.590309 157096
-67.599815 57.979099 -17.029865 157097
-67.638008 56.126019 -12.577868 157689
-67.422073 55.964626 -12.986657 157690
-67.413956 55.953789 -13.422966 157691
-67.436455 55.965118 -13.864107 157692
-67.39949 55.933376 -14.296844 157693
-67.399551 55.928455 -14.735481 157694
-67.391632 55.917747 -15.173279 157695
-67.394974 55.915184 -15.613374 157696
-67.409569 55.920757 -16.055973 157697
-67.409744 55.915897 -16.496653 157698
-67.405136 55.907555 -16.936977 157699
-67.355049 54.040749 -12.538095 158290
-67.162598 53.901451 -12.943788 158291
-67.183807 53.911331 -13.378042 158292
-67.174118 53.899628 -13.808395 158293
-67.146606 53.875488 -14.236361 158294
-67.156586 53.877522 -14.670384 158295
-67.151985 53.869358 -15.102604 158296
-67.152321 53.864639 -15.536084 158297
-67.164062 53.867874 -15.972054 158298
-67.164474 53.863201 -16.406633 158299
-67.160065 53.855148 -16.840855 158300
-66.382584 53.307858 -17.128508 158301
-67.105751 52.031734 -12.50611 158892
-66.950653 51.922512 -12.911012 158893
-66.949089 51.916565 -13.336341 158894
-66.919617 51.891838 -13.757977 158895
-66.941292 51.901493 -14.187493 158896
-66.951515 51.903442 -14.615889 158897
-66.93055 51.884426 -15.039783 158898
-66.940918 51.886459 -15.469193 158899
-66.910263 51.860928 -15.892098 158900
-66.940475 51.876286 -16.326067 158901
-66.94281 51.872906 -16.755754 158902
-66.490906 51.564346 -17.099991 158903
-67.042152 50.001659 -12.504468 159496
-66.831535 49.861088 -12.896605 159497
-66.836586 49.859535 -13.317342 159498
-66.833389 49.852669 -13.737337 159499
-66.825317 49.842644 -14.156986 159500
-66.825684 49.838051 -14.57832 159501
-66.821136 49.830303 -14.999323 159502
-66.83168 49.832264 -15.423283 159503
-66.823997 49.822472 -15.844699 159504
-66.828056 49.820244 -16.268641 159505
-66.810577 49.804131 -16.689203 159506
-66.502556 49.600941 -17.05533 159507
-66.966721 48.040932 -12.505076 160084
-66.709518 47.87735 -12.885941 160085
-66.741615 47.892441 -13.305288 160086
-66.718071 47.873165 -13.717253 160087
-66.733505 47.87796 -14.135303 160088
-66.72374 47.86718 -14.550012 160089
-66.709053 47.853359 -14.964285 160090
-66.692795 47.838573 -15.378621 160091
-66.718773 47.849846 -15.800553 160092
-66.736412 47.855961 -16.22179 160093
-66.712082 47.836174 -16.636074 160094
-66.467682 47.680607 -17.0093 160095
-66.737122 46.02158 -12.489423 160682
-66.593178 45.931831 -12.880126 160683
-66.615326 45.940254 -13.293139 160684
-66.611977 45.933598 -13.70307 160685
-66.607071 45.926014 -14.113156 160686
-66.604019 45.919525 -14.523932 160687
-66.585747 45.904045 -14.93268 160688
-66.596619 45.905769 -15.346574 160689
-66.602478 45.904533 -15.760212 160690
-66.589752 45.892303 -16.171131 160691
-66.612869 45.901245 -16.588978 160692
-66.450745 45.800797 -16.972918 160693
-66.466385 44.04229 -12.47195 161279
-66.483376 44.047272 -12.879044 161280
-66.495323 44.049393 -13.285999 161281
-66.484985 44.03891 -13.690236 161282
-66.462723 44.021698 -14.092999 161283
-66.469994 44.021172 -14.500589 161284
-66.472229 44.017784 -14.907904 161285
-66.486679 44.021294 -15.317748 161286
-66.475418 44.010277 -15.723833 161287
-66.486694 44.011978 -16.134289 161288
-66.455078 43.989464 -16.537601 161289
-66.390984 43.948597 -16.935062 161290
-66.202942 42.12606 -12.458825 161869
-66.370369 42.211872 -12.881212 161870
-66.354424 42.198669 -13.279864 161871
-66.357895 42.195934 -13.681601 161872
-66.363274 42.194229 -14.084092 161873
-66.349655 42.182266 -14.484117 161874
-66.365845 42.186386 -14.889264 161875
-66.342125 42.168961 -15.288432 161876
-66.365601 42.176994 -15.695929 161877
-66.366592 42.172894 -16.100212 161878
-66.35556 42.162308 -16.502853 161879
-66.315163 42.135868 -16.900459 161880
-66.056061 40.316177 -12.464344 162455
-66.256866 40.415047 -12.886979 162456
-66.251266 40.407574 -13.282939 162457
-66.265259 40.410191 -13.682115 162458
-66.263588 40.404732 -14.079494 162459
-66.267395 40.402092 -14.478162 162460
-66.248497 40.387753 -14.873676 162461
-66.249161 40.383484 -15.27273 162462
-66.244736 40.376579 -15.671408 162463
-66.238731 40.36887 -16.07028 162464
-66.245193 40.367569 -16.471874 162465
-66.236023 40.358212 -16.871166 162466
-65.859489 38.521004 -12.466669 163036
-66.133446 38.650894 -12.894961 163037
-66.141953 38.650482 -13.288933 163038
-66.127518 38.638802 -13.680056 163039
-66.111526 38.626358 -14.071236 163040
-66.115341 38.623631 -14.465791 163041
-66.114021 38.618378 -14.860022 163042
-66.121788 38.617577 -15.25622 163043
-66.135071 38.619465 -15.653934 163044
-66.118362 38.606644 -16.047028 163045
-66.128456 38.606964 -16.445318 163046
-66.062561 38.570023 -16.830147 163047
-65.539085 36.700348 -12.454841 163619
-65.995422 36.90881 -12.903285 163620
-66.043449 36.926636 -13.298967 163621
-66.035965 36.918552 -13.687429 163622
-66.037704 36.914761 -14.077644 163623
-66.016335 36.900185 -14.464721 163624
-66.018524 36.896595 -14.855843 163625
-65.994049 36.880562 -15.243049 163626
-65.993103 36.875504 -15.634521 163627
-66.004898 36.876377 -16.028728 163628
-65.986465 36.863152 -16.418127 163629
-65.998657 36.864197 -16.813562 163630
-65.453964 34.940475 -12.471474 164211
-65.976028 35.166821 -12.925286 164212
-65.973526 35.161186 -13.310431 164213
-65.958588 35.150047 -13.69415 164214
-65.960213 35.146233 -14.080664 164215
-65.967522 35.14492 -14.468524 164216
-65.969635 35.141304 -14.85609 164217
-65.948456 35.127392 -15.240297 164218
-65.961876 35.128761 -15.630692 164219
-65.955643 35.121445 -16.018284 164220
-65.857559 35.073559 -16.389786 164221
-65.95285 35.111061 -16.796675 164222
-65.292938 34.815102 -17.06152 164223
-65.369614 33.217724 -12.492007 164790
-65.921654 33.444012 -12.946586 164791
-65.918961 33.4384 -13.328346 164792
-65.929337 33.438248 -13.712417 164793
-65.886963 33.416054 -14.089045 164794
-65.934395 33.431374 -14.479728 164795
-65.896233 33.410927 -14.857568 164796
-65.911263 33.412704 -15.244333 164797
-65.899178 33.403137 -15.62712 164798
-65.892807 33.395966 -16.011303 164799
-65.910347 33.398762 -16.400263 164800
-65.875336 33.379608 -16.78021 164801
-65.326096 33.145859 -17.062723 164802
-65.37191 31.565853 -12.527665 165368
-65.880249 31.761818 -12.973583 165369
-65.840446 31.74168 -13.347009 165370
-65.869186 31.748547 -13.730522 165371
-65.841049 31.733002 -14.106138 165372
-65.848206 31.731359 -14.487451 165373
-65.835388 31.721832 -14.866081 165374
-65.824677 31.713139 -15.245424 165375
-65.823425 31.708168 -15.626776 165376
-65.846313 31.71269 -16.012859 165377
-65.761124 31.674654 -16.380224 165378
-65.82119 31.693798 -16.774183 165379
-65.285789 31.478569 -17.05625 165380
-65.426964 29.954538 -12.574201 165960
-65.801315 30.088902 -12.999487 165961
-65.798203 30.083313 -13.375056 165962
-65.793533 30.077141 -13.75079 165963
-65.791016 30.071762 -14.127247 165964
-65.790649 30.067175 -14.504468 165965
-65.788696 30.061996 -14.881903 165966
-65.781479 30.054857 -15.258926 165967
-65.761559 30.043013 -15.634214 165968
-65.762306 30.038818 -16.013456 165969
-65.779945 30.040869 -16.396276 165970
-65.762711 30.030001 -16.773359 165971
-65.123428 29.788923 -17.032772 165972
-65.474655 28.375448 -12.623171 166554
-65.652863 28.432997 -13.019339 166555
-65.701996 28.445648 -13.399192 166556
-65.68589 28.43561 -13.770321 166557
-65.623367 28.409439 -14.134687 166558
-65.649048 28.413916 -14.512741 166559
-65.69928 28.42692 -14.895469 166560
-65.647072 28.404324 -15.262139 166561
-65.679161 28.411007 -15.64322 166562
-65.653702 28.39769 -16.015013 166563
-65.578255 28.367023 -16.378084 166564
-65.642776 28.384945 -16.766897 166565
-64.943115 28.137604 -17.011784 166566
-65.833588 28.437666 -17.939905 166568
-65.835632 28.433855 -18.320753 166569
-65.810104 28.420471 -18.696487 166570
-65.49704 26.799639 -12.672702 167146
-65.657318 26.847275 -13.064293 167147
-65.646202 26.839218 -13.433285 167148
-65.644859 26.834333 -13.804043 167149
-65.641937 26.828926 -14.174989 167150
-65.64122 26.824234 -14.546712 167151
-65.631409 26.816576 -14.917429 167152
-65.631302 26.812071 -15.290159 167153
-65.625854 26.805826 -15.662478 167154
-65.630089 26.802717 -16.036963 167155
-65.628983 26.797867 -16.411058 167156
-65.596298 26.782766 -16.77984 167157
-65.045357 26.599609 -17.050406 167158
-66.066818 25.423548 -12.429482 167726
-65.492447 25.245281 -12.721954 167727
-65.558578 25.26082 -13.098444 167728
-65.554771 25.255198 -13.465929 167729
-65.575951 25.25713 -13.837508 167730
-65.550079 25.244825 -14.202541 167731
-65.55674 25.242353 -14.572914 167732
-65.542908 25.233677 -14.940499 167733
-65.535072 25.226818 -15.309448 167734
-65.529434 25.220608 -15.679204 167735
-65.537338 25.218489 -16.051811 167736
-65.430428 25.181686 -16.40427 167737
-65.48423 25.193413 -16.786083 167738
-64.865738 25.00218 -17.04109 167739
-65.605392 23.751295 -12.425376 168316
-65.436325 23.699396 -12.768068 168317
-65.491112 23.710285 -13.140819 168318
-65.471786 23.700382 -13.503815 168319
-65.450928 23.690044 -13.866836 168320
-65.48568 23.69529 -14.238636 168321
-65.454086 23.681938 -14.600741 168322
-65.466614 23.680943 -14.970201 168323
-65.454742 23.673103 -15.336193 168324
-65.464104 23.671206 -15.706227 168325
-65.437675 23.659283 -16.070553 168326
-65.432465 23.653296 -16.439014 168327
-65.437057 23.650043 -16.809801 168328
-64.784554 23.462952 -17.056017 168329
-65.289482 22.168259 -12.443651 168910
-65.392006 22.190338 -12.819748 168911
-65.404587 22.189137 -13.184598 168912
-65.388748 22.18058 -13.545876 168913
-65.398193 22.178558 -13.911211 168914
-65.402237 22.175129 -14.276254 168915
-65.381729 22.165348 -14.637906 168916
-65.371147 22.158134 -15.001469 168917
-65.397232 22.160383 -15.371574 168918
-65.37587 22.150366 -15.734253 168919
-65.372032 22.144873 -16.100357 168920
-65.358971 22.136993 -16.465294 168921
-65.29097 22.114927 -16.820431 168922
-65.022255 20.628239 -12.471448 169500
-65.356583 20.703133 -12.876302 169501
-65.326515 20.691551 -13.233349 169502
-65.341156 20.690571 -13.59704 169503
-65.315712 20.68008 -13.955293 169504
-65.323364 20.677429 -14.318877 169505
-65.28714 20.664377 -14.676019 169506
-65.303185 20.663706 -15.041863 169507
-65.283066 20.654461 -15.40227 169508
-65.295944 20.653027 -15.768698 169509
-65.2957 20.648476 -16.133446 169510
-65.316864 20.648985 -16.502628 169511
-65.252151 20.629166 -16.856533 169512
-64.770714 19.119301 -12.504458 170083
-65.230331 19.214146 -12.924074 170084
-65.242477 19.21232 -13.285008 170085
-65.237549 19.206797 -13.643991 170086
-65.238815 19.202612 -14.004299 170087
-65.265556 19.203915 -14.369023 170088
-65.225029 19.190695 -14.723722 170089
-65.21772 19.184643 -15.08399 170090
-65.208839 19.178247 -15.444423 170091
-65.221535 19.176489 -15.809026 170092
-65.201797 19.16774 -16.168503 170093
-65.20359 19.163622 -16.532274 170094
-65.188408 19.155844 -16.893438 170095
-64.809097 17.690407 -12.579257 170661
-65.157341 17.753824 -12.982756 170662
-65.145889 17.747133 -13.338695 170663
-65.171745 17.747692 -13.700431 170664
-65.161057 17.741135 -14.057317 170665
-65.152695 17.735025 -14.414926 170666
-65.135017 17.727095 -14.771437 170667
-65.10804 17.71735 -15.126741 170668
-65.122124 17.715593 -15.489255 170669
-65.122986 17.711252 -15.850113 170670
-65.126144 17.707352 -16.211918 170671
-65.131561 17.703884 -16.574713 170672
-65.050415 17.683599 -16.921865 170673
-64.844131 16.272757 -12.657169 171231
-65.099518 16.312704 -13.047093 171232
-65.060364 16.301397 -13.397644 171233
-65.047005 16.294577 -13.75207 171234
-65.043793 16.289511 -14.108366 171235
-65.042908 16.284849 -14.465455 171236
-65.05603 16.282608 -14.825265 171237
-65.04422 16.276037 -15.181558 171238
-65.019196 16.267164 -15.535995 171239
-65.031456 16.264757 -15.897236 171240
-65.022705 16.258696 -16.255356 171241
-65.047287 16.258411 -16.62007 171242
-64.926849 16.232977 -16.958254 171243
-65.368515 16.235186 -22.928442 171257
-65.526863 16.257746 -23.34514 171258
-65.431854 16.236629 -23.695232 171259
-65.418991 16.229662 -24.068048 171260
-65.343658 16.211933 -24.424038 171261
-65.354042 16.20895 -24.804766 171262
-65.595604 14.977468 -12.478819 171785
-64.876785 14.862791 -12.738468 171786
-64.995461 14.876438 -13.108714 171787
-64.979362 14.869436 -13.461065 171788
-64.97345 14.863987 -13.815218 171789
-64.981628 14.860695 -14.171916 171790
-64.953064 14.85177 -14.523372 171791
-64.946388 14.846195 -14.878591 171792
-64.953758 14.842756 -15.236576 171793
-64.932251 14.8349 -15.590198 171794
-64.928673 14.829777 -15.947291 171795
-64.923515 14.824406 -16.304604 171796
-64.916771 14.818787 -16.662128 171797
-64.760735 14.790396 -16.991924 171798
-65.369484 14.779276 -25.23271 171814
-64.1008 14.582705 -25.235428 171815
-64.897858 13.457926 -12.469677 172355
-64.872665 13.450012 -12.818797 172356
-64.889153 13.447611 -13.173943 172357
-64.892288 13.443434 -13.527728 172358
-64.874245 13.436453 -13.878819 172359
-64.862503 13.430302 -14.23117 172360
-64.860977 13.425493 -14.585491 172361
-64.853943 13.419952 -14.939389 172362
-64.861023 13.416267 -15.296073 172363
-64.850861 13.410305 -15.650372 172364
-64.846939 13.405155 -16.006205 172365
-64.841461 13.399794 -16.362253 172366
-64.842178 13.395247 -16.719957 172367
-64.568497 13.354544 -17.026129 172368
-65.282196 13.343338 -25.26112 172390
-64.036758 13.176125 -25.268877 172391
-64.407883 12.05817 -12.48385 172922
-64.634583 12.079115 -12.864444 172923
-64.623291 12.073225 -13.213887 172924
-64.618317 12.068039 -13.564576 172925
-64.596077 12.060913 -13.913067 172926
-64.623383 12.059349 -14.269473 172927
-64.601974 12.052303 -14.618841 172928
-64.61042 12.048607 -14.973381 172929
-64.621193 12.04516 -15.328888 172930
-64.610802 12.039337 -15.681349 172931
-64.598839 12.033327 -16.033964 172932
-64.612701 12.03021 -16.391703 172933
-64.585861 12.022524 -16.74254 172934
-64.455933 12.00329 -17.074047 172935
-64.659813 12.016706 -17.827948 172937
-64.642204 12.010027 -18.182777 172938
-64.65416 12.006641 -18.544247 172939
-64.610031 11.996981 -18.894499 172940
-64.622627 11.99365 -19.257383 172941
-64.625816 11.989258 -19.618965 172942
-64.596344 11.981216 -19.973841 172943
-64.631134 11.98033 -20.344061 172944
-64.625511 11.974926 -20.705769 172945
-64.645302 11.972343 -21.074293 172946
-64.609322 11.963545 -21.430048 172947
-64.000809 11.891096 -21.642801 172948
-64.559563 11.948399 -22.14855 172949
-64.615013 11.949734 -22.52953 172950
-64.649422 11.948715 -22.906284 172951
-64.659012 11.944931 -23.277517 172952
-64.651543 11.939241 -23.645021 172953
-64.661522 11.935474 -24.018196 172954
-64.665939 11.93108 -24.390779 172955
-63.972988 11.849497 -24.563362 172956
-64.413788 11.893383 -25.06237 172957
-64.357079 10.824417 -12.547237 173494
-64.733719 10.855396 -12.947791 173495
-64.706184 10.848156 -13.294701 173496
-64.712585 10.84412 -13.646769 173497
-64.71743 10.839922 -13.999103 173498
-64.677414 10.831495 -14.344963 173499
-64.679146 10.826998 -14.697616 173500
-64.691109 10.823456 -15.052449 173501
-64.68969 10.818651 -15.405633 173502
-64.678841 10.81295 -15.757684 173503
-64.666443 10.8071 -16.109888 173504
-64.67598 10.803301 -16.46653 173505
-64.672165 10.798239 -16.82132 173506
-63.997818 10.730286 -17.04818 173507
-64.883606 10.707146 -25.249516 173528
-64.382957 9.6049347 -12.623672 174062
-64.637222 9.6197224 -13.007208 174063
-64.652718 9.6162453 -13.359277 174064
-64.62326 9.6093311 -13.705287 174065
-64.647476 9.6065044 -14.059637 174066
-64.626755 9.6002483 -14.407634 174067
-64.620255 9.5950699 -14.758209 174068
-64.616135 9.5900688 -15.109608 174069
-64.614372 9.5852394 -15.461876 174070
-64.60318 9.5796852 -15.813001 174071
-64.606133 9.575201 -16.167089 174072
-64.599648 9.5699902 -16.52002 174073
-64.611183 9.5661392 -16.876841 174074
-64.574654 9.4522114 -25.215134 174095
-65.200531 8.437933 -12.459143 174618
-64.454659 8.389658 -12.709444 174619
-64.550529 8.3905697 -13.071018 174620
-64.573593 8.3872223 -13.42338 174621
-64.571373 8.3823948 -13.772633 174622
-64.547867 8.3763218 -14.119053 174623
-64.546509 8.3715324 -14.469218 174624
-64.555397 8.3673344 -14.821509 174625
-64.55484 8.3625774 -15.1728 174626
-64.544853 8.3572693 -15.52298 174627
-64.541145 8.3523178 -15.874697 174628
-64.53981 8.3474979 -16.227341 174629
-64.548668 8.3432598 -16.582405 174630
-64.434265 8.3319035 -16.914825 174631
-64.419678 7.1748161 -12.436603 175160
-64.496994 7.1732159 -12.794446 175161
-64.52124 7.1694641 -13.145919 175162
-64.51226 7.1643658 -13.493215 175163
-64.49778 7.1590424 -13.840048 175164
-64.473869 7.1533356 -14.185753 175165
-64.487907 7.1491451 -14.537726 175166
-64.488533 7.144413 -14.888121 175167
-64.487587 7.1396084 -15.238755 175168
-64.492966 7.1350479 -15.590976 175169
-64.484932 7.1299496 -15.94141 175170
-64.471405 7.1246243 -16.291313 175171
-64.468102 7.1196976 -16.643547 175172
-64.274742 7.1072388 -16.960207 175173
-64.107834 5.9550209 -12.477495 175720
-64.442436 5.9577351 -12.869163 175721
-64.430634 5.952692 -13.215112 175722
-64.433128 5.9479599 -13.563474 175723
-64.430107 5.9431 -13.911473 175724
-64.413689 5.9379368 -14.257822 175725
-64.447075 5.9338646 -14.612444 175726
-64.411751 5.9282761 -14.956581 175727
-64.414368 5.9235153 -15.307292 175728
-64.411461 5.918623 -15.657587 175729
-64.43454 5.9142933 -16.013002 175730
-64.420593 5.9091492 -16.362425 175731
-64.416893 5.9042206 -16.714191 175732
-64.16806 5.8939915 -17.019651 175733
-64.04805 4.7500038 -12.554399 176284
-64.366409 4.7465668 -12.943842 176285
-64.350227 4.7416534 -13.288724 176286
-64.372086 4.7368984 -13.639505 176287
-64.352837 4.7319603 -13.984682 176288
-64.332047 4.7270126 -14.329908 176289
-64.376862 4.7223244 -14.685975 176290
-64.384544 4.7174778 -15.036795 176291
-64.370926 4.7125416 -15.384572 176292
-64.355759 4.707592 -15.732476 176293
-64.331169 4.7026005 -16.079094 176294
-64.352249 4.6977749 -16.434404 176295
-64.344193 4.692831 -16.784998 176296
-63.812134 4.6859989 -17.035349 176297
-64.109741 3.5473003 -12.650539 176845
-64.328476 3.5394211 -13.026745 176846
-64.299965 3.534893 -13.36969 176847
-64.325333 3.5296173 -13.72082 176848
-64.301674 3.5250149 -14.065129 176849
-64.300186 3.5200977 -14.413182 176850
-64.289268 3.5153065 -14.760175 176851
-64.296516 3.5102539 -15.110589 176852
-64.306137 3.5051632 -15.461978 176853
-64.286598 3.500473 -15.808863 176854
-64.269447 3.4957466 -16.15654 176855
-64.124886 3.4928284 -16.481112 176856
-63.719589 3.4936581 -16.755682 176857
-64.245598 2.2743721 -12.413045 177421
-64.294952 2.2678051 -12.765686 177422
-64.275421 2.2634697 -13.109473 177423
-64.274147 2.2585373 -13.456165 177424
-64.259468 2.2540359 -13.801284 177425
-64.278824 2.2484112 -14.151975 177426
-64.265015 2.2438698 -14.498042 177427
-64.253609 2.2392445 -14.844866 177428
-64.240654 2.234663 -15.191823 177429
-64.234047 2.2298679 -15.540272 177430
-64.241631 2.224596 -15.89169 177431
-64.243675 2.2194958 -16.242722 177432
-64.22451 2.2150974 -16.590384 177433
-64.030975 2.2165012 -16.905268 177434
-63.914719 0.91374397 -12.461726 178011
-64.260475 0.89043808 -12.853898 178012
-64.260223 0.88544846 -13.200336 178013
-64.266335 0.8801136 -13.548137 178014
-64.255104 0.87569618 -13.893815 178015
-64.26207 0.8703022 -14.242684 178016
-64.25563 0.86561584 -14.589947 178017
-64.227959 0.86205864 -14.934143 178018
-64.230255 0.85689354 -15.283665 178019
-64.230995 0.85180473 -15.633451 178020
-64.214432 0.84763336 -15.980695 178021
-64.200256 0.8433342 -16.328772 178022
-64.192375 0.83868599 -16.678457 178023
-63.924 0.84804535 -16.978718 178024
-63.964005 -0.446455 -12.563838 178591
-64.225716 -0.47066307 -12.945235 178592
-64.228897 -0.47594261 -13.29224 178593
-64.214745 -0.47995949 -13.63714 178594
-64.230621 -0.48618698 -13.986949 178595
-64.244919 -0.49230576 -14.337118 178596
-64.226151 -0.49600029 -14.682549 178597
-64.205849 -0.49958611 -15.028053 178598
-64.211548 -0.50509071 -15.378316 178599
-64.196014 -0.50904083 -15.725437 178600
-64.194664 -0.51404381 -16.075499 178601
-64.203506 -0.51980782 -16.427979 178602
-64.167625 -0.5222702 -16.772665 178603
-63.280235 -0.46165085 -16.953094 178604
-64.494431 -0.66744423 -25.140438 178624
-63.327049 -0.58454323 -25.161318 178625
-64.397713 -1.8468761 -12.376242 179186
-64.127045 -1.8266296 -12.686208 179187
-64.194351 -1.8380318 -13.041731 179188
-64.165436 -1.8404255 -13.384315 179189
-64.198051 -1.8485966 -13.73629 179190
-64.170036 -1.8510838 -14.079666 179191
-64.128716 -1.8523235 -14.421151 179192
-64.180244 -1.862299 -14.777895 179193
-64.151581 -1.8647404 -15.12216 179194
-64.176346 -1.8722191 -15.475877 179195
-64.18383 -1.8780766 -15.827291 179196
-64.154465 -1.8804703 -16.172638 179197
-64.119659 -1.8823528 -16.517263 179198
-64.016808 -1.8778114 -16.849203 179199
-64.087944 -2.0063477 -25.136961 179221
-63.814964 -3.1552048 -12.40305 179772
-64.162842 -3.2000542 -12.795732 179773
-64.150688 -3.2038364 -13.14073 179774
-64.148811 -3.2087975 -13.487558 179775
-64.145409 -3.2135887 -13.834587 179776
-64.132614 -3.2173138 -14.180582 179777
-64.118279 -3.2208672 -14.526694 179778
-64.137726 -3.2282982 -14.878727 179779
-64.124222 -3.2319584 -15.225868 179780
-64.13269 -3.2381439 -15.577219 179781
-64.108284 -3.2405701 -15.923317 179782
-64.101883 -3.2450695 -16.273039 179783
-64.078316 -3.2476006 -16.620041 179784
-63.811172 -3.2221355 -16.920668 179785
-63.750584 -3.2308998 -17.963831 179788
-63.532791 -3.2110653 -18.270899 179789
-64.048309 -3.2757568 -18.734116 179790
-64.02935 -3.2788715 -19.08548 179791
-64.004921 -3.2813625 -19.436131 179792
-64.025436 -3.2890491 -19.797531 179793
-64.013313 -3.2929783 -20.152216 179794
-63.991848 -3.2958355 -20.505297 179795
-64.015152 -3.3038845 -20.869781 179796
-63.959583 -3.3028145 -21.215752 179797
-63.964157 -3.3087139 -21.577124 179798
-63.97477 -3.3153286 -21.940878 179799
-63.96447 -3.3195286 -22.300079 179800
-63.921791 -3.3199825 -22.651405 179801
-63.927414 -3.3260536 -23.016237 179802
-63.916 -3.3301544 -23.377296 179803
-63.872314 -3.3305187 -23.730083 179804
-63.888203 -3.337822 -24.100313 179805
-63.776344 -3.330267 -24.434622 179806
-63.769833 -3.3349819 -24.799789 179807
-63.582615 -3.3186474 -25.111797 179808
-64.50425 -4.8074799 -25.151836 180391
-63.301949 -4.6481419 -25.162163 180392
-63.043064 -5.9353046 -22.682114 180974
-64.482117 -6.1846123 -24.547113 180978
-64.037788 -6.1258936 -25.158234 180980
-64.295708 -7.5392141 -23.537195 181549
-64.258896 -7.5384197 -23.895781 181550
-64.209106 -7.5353165 -24.251204 181551
-64.214508 -7.5420847 -24.623142 181552
-64.195496 -7.5445023 -24.988846 181553
-63.514122 -7.4284372 -25.156004 181554
-62.982819 -8.667572 -22.598463 182108
-63.153553 -8.7419891 -25.203505 182113
-63.941956 -10.29722 -25.229342 182644
-62.370369 -18.087206 -25.475317 184823
-63.111015 -18.934641 -25.42226 185913
-62.480179 -19.871996 -25.395947 186475
