# .PCD v0.7 - Point Cloud Data file format
VERSION 0.7
FIELDS x y z intensity
SIZE 4 4 4 4
TYPE F F F F
COUNT 1 1 1 1
WIDTH 1283
HEIGHT 1
VIEWPOINT 0 0 0 1 0 0 0
POINTS 1283
DATA ascii
23.974739 42.260036 -11.482237 82801
23.960083 42.234802 -11.718485 82802
23.948195 42.215786 -11.956231 82803
23.956635 42.242344 -12.204329 82804
23.937477 42.207047 -12.439045 82805
23.941799 42.224419 -12.686075 82806
23.929741 42.205044 -12.924994 82807
23.925186 42.20253 -13.168252 82808
23.91065 42.17762 -13.406407 82809
23.902023 42.165989 -13.648131 82810
23.907204 42.185371 -13.898201 82811
23.592342 42.147259 -9.9608078 83420
23.632854 42.247379 -10.217212 83421
23.617508 42.219959 -10.45118 83422
23.612806 42.216869 -10.689874 83423
23.595051 42.183949 -10.923042 83424
23.592648 42.186127 -11.163304 83425
23.591389 42.190918 -11.4045 83426
23.583387 42.180321 -11.642881 83427
23.584393 42.190319 -11.885994 83428
23.57552 42.17775 -12.124629 83429
23.575628 42.185734 -12.368193 83430
23.567451 42.174774 -12.60789 83431
23.551004 42.144917 -12.843462 83432
23.540396 42.128414 -13.082396 83433
23.548111 42.153851 -13.331914 83434
23.542862 42.149639 -13.574726 83435
23.518452 42.101589 -13.806768 83436
23.22234 42.105644 -9.8945827 84046
23.237381 42.148346 -10.139686 84047
23.242634 42.16827 -10.381329 84048
23.236561 42.161839 -10.618516 84049
23.236286 42.168915 -10.858613 84050
23.226263 42.153294 -11.094618 84051
23.215828 42.136715 -11.330646 84052
23.215813 42.144444 -11.571973 84053
23.215366 42.151165 -11.813553 84054
23.19902 42.120834 -12.047484 84055
23.193077 42.114773 -12.286962 84056
23.19133 42.118511 -12.529041 84057
23.189142 42.121231 -12.771355 84058
23.178816 42.104988 -13.009604 84059
23.180367 42.116463 -13.254903 84060
23.161503 42.080303 -13.488932 84061
23.154499 42.071842 -13.730098 84062
23.157787 42.087414 -13.977882 84063
22.920307 42.216633 -9.855937 84662
22.884605 42.139591 -10.07957 84663
22.877621 42.13076 -10.31527 84664
22.876331 42.135487 -10.55377 84665
22.860882 42.106552 -10.786176 84666
22.858767 42.109325 -11.024925 84667
22.845558 42.085739 -11.258729 84668
22.850227 42.10466 -11.501499 84669
22.836197 42.079136 -11.7354 84670
22.827843 42.067123 -11.972385 84671
22.814524 42.043289 -12.207035 84672
22.820515 42.065422 -12.452307 84673
22.815453 42.061264 -12.692123 84674
22.811472 42.059711 -12.932955 84675
22.808584 42.060749 -13.174848 84676
22.811298 42.075157 -13.42051 84677
22.792446 42.038216 -13.653851 84678
22.785246 42.029049 -13.894434 84679
22.785145 42.036793 -14.139851 84680
22.775576 42.022007 -14.37983 84681
22.771591 42.020523 -14.623794 84682
22.758163 41.996559 -14.862039 84683
22.765287 42.021595 -15.114392 84684
22.747999 41.988464 -15.350849 84685
22.482012 42.007866 -9.9980736 85282
22.514381 42.094154 -10.249824 85283
22.496681 42.05909 -10.480127 85284
22.50713 42.092278 -10.723492 85285
22.491638 42.06258 -10.955197 85286
22.48625 42.057396 -11.191907 85287
22.468479 42.022163 -11.422753 85288
22.47575 42.04771 -11.666451 85289
22.469131 42.039574 -11.903529 85290
22.456139 42.015965 -12.137519 85291
22.465115 42.0457 -12.383718 85292
22.454277 42.027351 -12.619558 85293
22.443035 42.008038 -12.855423 85294
22.432877 41.991352 -13.092177 85295
22.438644 42.013367 -13.338711 85296
22.424683 41.987473 -13.573942 85297
22.41921 41.982208 -13.814656 85298
22.42959 42.015491 -14.065834 85299
22.432117 42.029716 -14.312789 85300
22.419434 42.006985 -14.550411 85301
22.413721 42.001194 -14.792989 85302
22.406096 41.990788 -15.034745 85303
22.392164 41.965054 -15.272567 85304
22.102745 41.937626 -9.9264297 85890
22.140568 42.039116 -10.179851 85891
22.136572 42.037136 -10.415462 85892
22.130695 42.030525 -10.65052 85893
22.128849 42.03389 -10.887805 85894
22.116285 42.010738 -11.120198 85895
22.110695 42.004852 -11.356264 85896
22.1047 41.997986 -11.592449 85897
22.082153 41.950119 -11.820186 85898
22.101782 42.006752 -12.070727 85899
22.09164 41.989655 -12.305736 85900
22.086964 41.986099 -12.544094 85901
22.092113 42.00692 -12.788547 85902
22.079304 41.983223 -13.023026 85903
22.061718 41.947701 -13.254847 85904
22.051041 41.929314 -13.491034 85905
22.050152 41.935219 -13.733668 85906
22.059017 41.96534 -13.983099 85907
22.05146 41.954735 -14.222601 85908
22.046391 41.950314 -14.464162 85909
22.046688 41.959251 -14.709847 85910
22.036432 41.941982 -14.948856 85911
22.012756 41.891415 -15.178793 85912
21.202507 42.122765 -9.7965879 86502
21.218925 42.174034 -10.040071 86503
21.219494 42.183704 -10.276862 86504
21.215475 42.18132 -10.511849 86505
21.206875 42.166912 -10.744872 86506
21.207699 42.177284 -10.982944 86507
21.195553 42.153572 -11.214671 86508
21.184437 42.132576 -11.447102 86509
21.179932 42.128967 -11.683353 86510
21.175039 42.124359 -11.919753 86511
21.17255 42.126083 -12.157902 86512
21.161327 42.104843 -12.391338 86513
21.155291 42.097256 -12.628117 86514
21.158583 42.114243 -12.871001 86515
21.150383 42.100983 -13.107279 86516
21.139023 42.079433 -13.341866 86517
21.141129 42.093327 -13.585514 86518
21.142818 42.106171 -13.82951 86519
21.134445 42.09251 -14.067271 86520
21.142221 42.121422 -14.316606 86521
21.127541 42.091187 -14.550873 86522
21.116617 42.070847 -14.788062 86523
21.116287 42.078465 -15.033355 86524
21.100044 42.129265 -9.7804718 87128
21.064722 42.044044 -9.9998722 87129
21.059776 42.039127 -10.233244 87130
21.06282 42.055359 -10.470816 87131
21.061295 42.059525 -10.706598 87132
21.049656 42.036938 -10.937572 87133
21.050159 42.046501 -11.175097 87134
21.033615 42.010944 -11.403881 87135
21.029202 42.007507 -11.639415 87136
21.024412 42.003082 -11.875099 87137
21.024775 42.012325 -12.114132 87138
21.016453 41.998573 -12.348528 87139
21.013283 41.998478 -12.586332 87140
21.001442 41.97543 -12.819216 87141
21.011288 42.009861 -13.066007 87142
20.997309 41.981167 -13.298247 87143
20.998091 41.991611 -13.540375 87144
20.973743 41.935455 -13.76624 87145
20.983356 41.969341 -14.015249 87146
20.981575 41.973049 -14.257162 87147
20.980766 41.979343 -14.500309 87148
20.972715 41.966446 -14.738806 87149
20.962912 41.948914 -14.976414 87150
20.957279 41.843269 -9.959466 87766
20.983055 41.919712 -10.206468 87767
20.983356 41.928677 -10.442073 87768
20.979107 41.925598 -10.675821 87769
20.963371 41.892078 -10.903978 87770
20.96394 41.901779 -11.140784 87771
20.948868 41.870033 -11.369601 87772
20.938982 41.852043 -11.601366 87773
20.937035 41.85511 -11.837847 87774
20.931934 41.849838 -12.072939 87775
20.936123 41.869221 -12.313898 87776
20.923361 41.843643 -12.545207 87777
20.929522 41.868305 -12.788408 87778
20.914635 41.837101 -13.018997 87779
20.903507 41.815891 -13.252163 87780
20.904369 41.826523 -13.493474 87781
20.892485 41.803329 -13.726813 87782
20.902149 41.837391 -13.975158 87783
20.890865 41.815811 -14.209727 87784
20.890137 41.822304 -14.452093 87785
20.882183 41.809601 -14.689814 87786
20.856125 41.748779 -14.914583 87787
20.65226 41.768536 -9.900794 88397
20.679085 41.849094 -10.147658 88398
20.66987 41.832451 -10.377784 88399
20.665779 41.829639 -10.610695 88400
20.669521 41.847992 -10.848015 88401
20.655123 41.817383 -11.076184 88402
20.658119 41.833744 -11.313951 88403
20.638916 41.790176 -11.539815 88404
20.642529 41.808228 -11.778735 88405
20.634865 41.795845 -12.011619 88406
20.629559 41.789833 -12.246205 88407
20.625233 41.786491 -12.481761 88408
20.624609 41.793156 -12.720031 88409
20.616817 41.780483 -12.954231 88410
20.61001 41.770477 -13.189401 88411
20.598782 41.748512 -13.421983 88412
20.602036 41.765739 -13.664675 88413
20.603544 41.778252 -13.906808 88414
20.588484 41.745983 -14.13786 88415
20.582489 41.738232 -14.375621 88416
20.57745 41.733101 -14.614528 88417
20.589476 41.774166 -14.866653 88418
20.4841 41.583649 -17.492304 88419
20.301529 41.731792 -9.8393517 89030
20.32523 41.80542 -10.084188 89031
20.313587 41.781601 -10.312309 89032
20.309654 41.779053 -10.544518 89033
20.297318 41.753326 -10.77261 89034
20.294018 41.752541 -11.005709 89035
20.293034 41.758163 -11.240458 89036
20.295696 41.773865 -11.477713 89037
20.272598 41.718452 -11.700515 89038
20.283875 41.757973 -11.94365 89039
20.274755 41.741188 -12.175159 89040
20.26395 41.719749 -12.405872 89041
20.258114 41.712051 -12.639968 89042
20.261215 41.729061 -12.880233 89043
20.249329 41.704674 -13.111177 89044
20.2477 41.708641 -13.349282 89045
20.244362 41.707916 -13.586722 89046
20.247271 41.724464 -13.829029 89047
20.240532 41.714371 -14.065073 89048
20.245302 41.736118 -14.309937 89049
20.224632 41.687496 -14.536572 89050
20.237846 41.732658 -14.788968 89051
20.041012 41.949169 -9.8219204 89663
19.957458 41.721809 -10.014259 89664
19.957993 41.731674 -10.247603 89665
19.956852 41.736828 -10.480505 89666
19.943523 41.707592 -10.707263 89667
19.945625 41.721924 -10.942586 89668
19.9408 41.716713 -11.17451 89669
19.918587 41.662399 -11.396715 89670
19.922241 41.681164 -11.63408 89671
19.911142 41.658249 -11.863091 89672
19.920609 41.693459 -12.105012 89673
19.911411 41.675957 -12.335891 89674
19.913607 41.690659 -12.574386 89675
19.899794 41.660126 -12.802896 89676
19.905163 41.683838 -13.044478 89677
19.893246 41.658695 -13.274869 89678
19.879692 41.628914 -13.504327 89679
19.869678 41.60918 -13.73651 89680
19.869682 41.617775 -13.976288 89681
19.868015 41.621666 -14.215406 89682
19.865965 41.624508 -14.454793 89683
19.875158 41.659187 -14.703399 89684
19.588699 41.599514 -9.9429417 90294
19.629339 41.725235 -10.195991 90295
19.597321 41.641254 -10.41198 90296
19.612694 41.694103 -10.653339 90297
19.596794 41.656654 -10.87808 90298
19.59343 41.655422 -11.110006 90299
19.591011 41.656929 -11.342849 90300
19.581818 41.638889 -11.572024 90301
19.585115 41.656948 -11.809093 90302
19.573959 41.633247 -12.037655 90303
19.572706 41.638187 -12.272768 90304
19.567261 41.63102 -12.505598 90305
19.560192 41.619171 -12.737704 90306
19.561707 41.63216 -12.976015 90307
19.567951 41.658848 -13.218214 90308
19.543278 41.596104 -13.439091 90309
19.541168 41.598671 -13.676243 90310
19.53616 41.592857 -13.911757 90311
19.54221 41.619064 -14.156067 90312
19.53014 41.592842 -14.387191 90313
19.534176 41.613258 -14.631206 90314
19.259045 41.546394 -9.8899155 90924
19.283764 41.627811 -10.134232 90925
19.276474 41.614826 -10.36239 90926
19.284023 41.645638 -10.598981 90927
19.273539 41.623245 -10.825982 90928
19.261473 41.596172 -11.052207 90929
19.249081 41.568157 -11.278354 90930
19.255253 41.594971 -11.515941 90931
19.243464 41.568745 -11.742959 90932
19.23637 41.556404 -11.973125 90933
19.231455 41.55051 -12.205007 90934
19.239988 41.584381 -12.446224 90935
19.24189 41.598675 -12.683684 90936
19.232182 41.578648 -12.91364 90937
19.235878 41.598289 -13.153381 90938
19.214254 41.543053 -13.37542 90939
19.214756 41.553276 -13.613752 90940
19.221127 41.580879 -13.857089 90941
19.194786 41.511715 -14.076059 90942
19.192993 41.515186 -14.314069 90943
19.193317 41.524956 -14.554321 90944
18.937843 41.51284 -9.8409939 91557
18.954679 41.572212 -10.080724 91558
18.951313 41.570648 -10.310278 91559
18.94762 41.568115 -10.539973 91560
18.948547 41.579544 -10.77266 91561
18.945433 41.578777 -11.003427 91562
18.925934 41.528526 -11.224625 91563
18.932039 41.555649 -11.461611 91564
18.923008 41.537037 -11.689631 91565
18.917347 41.528625 -11.920059 91566
18.911356 41.519238 -12.1506 91567
18.903809 41.505142 -12.380408 91568
18.906977 41.523472 -12.617942 91569
18.903666 41.522217 -12.851503 91570
18.895115 41.505142 -13.081718 91571
18.893578 41.509285 -13.317394 91572
18.885586 41.493916 -13.548727 91573
18.88702 41.507099 -13.787622 91574
18.878349 41.489716 -14.019238 91575
18.873001 41.482395 -14.25383 91576
18.877033 41.503498 -14.496477 91577
18.813137 41.409065 -17.110699 91578
18.681587 41.675644 -9.8262882 92196
18.60326 41.442471 -10.014898 92197
18.620689 41.504951 -10.254976 92198
18.619556 41.510147 -10.485375 92199
18.612043 41.495628 -10.712423 92200
18.613903 41.510094 -10.945333 92201
18.606964 41.497375 -11.17332 92202
18.59487 41.468735 -11.398315 92203
18.601789 41.498886 -11.635697 92204
18.593887 41.483238 -11.863977 92205
18.586878 41.470345 -12.093113 92206
18.58075 41.460197 -12.32315 92207
18.568287 41.430462 -12.549048 92208
18.571127 41.44809 -12.786119 92209
18.576023 41.472099 -13.025316 92210
18.567387 41.45425 -13.255053 92211
18.564413 41.453938 -13.489417 92212
18.545567 41.404488 -13.711863 92213
18.553879 41.439159 -13.955928 92214
18.555862 41.454266 -14.195703 92215
18.53368 41.394508 -14.416164 92216
18.283031 41.39962 -9.9652376 92831
18.304899 41.477505 -10.207397 92832
18.296711 41.460384 -10.433148 92833
18.281101 41.419792 -10.65465 92834
18.279427 41.423294 -10.88465 92835
18.284542 41.44828 -11.119304 92836
18.273943 41.423569 -11.344481 92837
18.251221 41.360489 -11.561838 92838
18.260107 41.397461 -11.800235 92839
18.262749 41.414696 -12.035101 92840
18.239132 41.348804 -12.252094 92841
18.242317 41.367783 -12.488114 92842
18.258099 41.426693 -12.733992 92843
18.252377 41.417496 -12.964783 92844
18.25337 41.429611 -13.201072 92845
18.228251 41.358978 -13.417593 92846
18.220413 41.343124 -13.647636 92847
18.216932 41.341099 -13.88154 92848
18.218964 41.35656 -14.120474 92849
18.220648 41.37096 -14.359775 92850
17.955528 41.331673 -9.9117565 93467
17.992109 41.458954 -10.161912 93468
17.969028 41.393051 -10.378281 93469
17.972389 41.412804 -10.610433 93470
17.969631 41.41275 -10.839313 93471
17.95961 41.389175 -11.063918 93472
17.953926 41.379662 -11.291509 93473
17.951412 41.380421 -11.521507 93474
17.943958 41.365204 -11.748529 93475
17.937363 41.352764 -11.976404 93476
17.921234 41.309425 -12.19775 93477
17.93362 41.358582 -12.43995 93478
17.926098 41.343178 -12.668186 93479
17.919416 41.330521 -12.897357 93480
17.913578 41.320602 -13.127513 93481
17.913158 41.328297 -13.362341 93482
17.905544 41.312653 -13.591887 93483
17.906773 41.325733 -13.829064 93484
17.90081 41.315495 -14.060815 93485
17.901384 41.326485 -14.298568 93486
17.822571 41.172028 -16.869474 93487
17.637104 41.279137 -9.8620014 94105
17.655865 41.350269 -10.101454 94106
17.658367 41.367508 -10.332108 94107
17.652609 41.357346 -10.558161 94108
17.646557 41.346218 -10.784282 94109
17.634544 41.3153 -11.006782 94110
17.625645 41.294739 -11.23143 94111
17.637959 41.344627 -11.470719 94112
17.617153 41.284546 -11.687778 94113
17.620926 41.30611 -11.922194 94114
17.616482 41.300404 -12.151233 94115
17.610613 41.289955 -12.379573 94116
17.61232 41.304718 -12.614008 94117
17.59572 41.258636 -12.8348 94118
17.578842 41.211632 -13.055376 94119
17.597584 41.283089 -13.304778 94120
17.590193 41.267658 -13.533776 94121
17.586975 41.26614 -13.766619 94122
17.573387 41.230122 -13.991039 94123
17.571789 41.234013 -14.226091 94124
17.518707 41.159935 -16.812983 94125
17.380096 41.432308 -9.8480377 94737
17.317192 41.227432 -10.039228 94738
17.328598 41.275223 -10.274438 94739
17.325251 41.272861 -10.501142 94740
17.310513 41.231758 -10.720815 94741
17.31768 41.26519 -10.954959 94742
17.312351 41.256123 -11.181312 94743
17.312267 41.264912 -11.411597 94744
17.304146 41.246361 -11.636642 94745
17.290215 41.208038 -11.857688 94746
17.292559 41.225143 -12.090864 94747
17.295692 41.244972 -12.325223 94748
17.291914 41.241257 -12.554832 94749
17.290031 41.244041 -12.786352 94750
17.291145 41.257034 -13.020761 94751
17.272203 41.201687 -13.239209 94752
17.269428 41.201462 -13.471193 94753
17.257595 41.170364 -13.69588 94754
17.265148 41.205402 -13.937711 94755
17.258177 41.190926 -14.167438 94756
17.262905 41.21637 -14.408151 94757
16.973415 41.140232 -9.9813404 95373
17.000877 41.245239 -10.225949 95374
17.003063 41.262016 -10.455642 95375
16.989796 41.224815 -10.675648 95376
16.992495 41.243401 -10.906447 95377
16.988411 41.238316 -11.133096 95378
16.977562 41.209595 -11.355274 95379
16.963209 41.168621 -11.575023 95380
16.966911 41.190788 -11.808174 95381
16.957394 41.16674 -12.03191 95382
16.955126 41.168068 -12.261454 95383
16.95579 41.179672 -12.493755 95384
16.946501 41.156445 -12.718548 95385
16.956217 41.199776 -12.959263 95386
16.953838 41.20079 -13.190653 95387
16.931923 41.133408 -13.405722 95388
16.942856 41.181065 -13.649411 95389
16.932129 41.152893 -13.874694 95390
16.939228 41.18718 -14.11643 95391
16.632626 41.149654 -9.9370375 96002
16.645645 41.205723 -10.172407 96003
16.643581 41.207603 -10.398726 96004
16.638077 41.197121 -10.623089 96005
16.633358 41.189468 -10.848245 96006
16.631523 41.1922 -11.075735 96007
16.630459 41.197727 -11.304183 96008
16.620712 41.172016 -11.526621 96009
16.623287 41.190678 -11.758563 96010
16.614044 41.166801 -11.981912 96011
16.608723 41.157051 -12.208551 96012
16.606258 41.157616 -12.43784 96013
16.599333 41.142132 -12.663871 96014
16.597347 41.144455 -12.894371 96015
16.592995 41.138256 -13.123302 96016
16.587315 41.127296 -13.35147 96017
16.591749 41.152832 -13.58908 96018
16.568886 41.079929 -13.802446 96019
16.581036 41.133331 -14.048244 96020
16.528255 41.049603 -16.612175 96021
15.703379 41.238113 -9.827611 96633
15.72128 41.317959 -10.066209 96634
15.717434 41.31271 -10.290604 96635
15.705544 41.275967 -10.50949 96636
15.705098 41.28405 -10.73684 96637
15.696614 41.260662 -10.958535 96638
15.703425 41.297218 -11.192247 96639
15.702199 41.302303 -11.420294 96640
15.691989 41.272182 -11.641476 96641
15.692189 41.282883 -11.87142 96642
15.686318 41.269806 -12.096717 96643
15.682125 41.263325 -12.323764 96644
15.666099 41.210419 -12.54067 96645
15.549591 40.76321 -12.666472 96646
15.54766 40.765549 -12.894406 96647
15.545466 40.76688 -13.122568 96648
15.534366 40.73325 -13.342631 96649
15.527816 40.717518 -13.567314 96650
15.520058 40.697037 -13.791115 96651
15.537879 40.777073 -14.041286 96652
15.470867 40.615044 -16.318485 96653
15.624286 41.347118 -9.8324299 97268
15.587843 41.212879 -10.034038 97269
15.581163 41.196304 -10.255798 97270
15.581964 41.209324 -10.483176 97271
15.581539 41.217529 -10.710109 97272
15.574117 41.198051 -10.932136 97273
15.570302 41.19286 -11.157164 97274
15.572963 41.213318 -11.387708 97275
15.566719 41.19854 -11.611529 97276
15.549671 41.140991 -11.826554 97277
15.552525 41.162262 -12.058493 97278
15.551275 41.167328 -12.287459 97279
15.541167 41.137272 -12.508966 97280
15.423856 40.682343 -12.632694 97281
15.413387 40.650799 -12.852146 97282
15.407445 40.637203 -13.076052 97283
15.404101 40.633949 -13.302815 97284
15.401452 40.633461 -13.530704 97285
15.390949 40.601826 -13.751146 97286
15.406747 40.674576 -13.998807 97287
15.545722 41.052658 -10.005885 97907
15.555503 41.101162 -10.238553 97908
15.547641 41.079887 -10.459188 97909
15.554961 41.118706 -10.691289 97910
15.541789 41.076443 -10.908452 97911
15.54955 41.117054 -11.141965 97912
15.533009 41.06147 -11.356771 97913
15.529684 41.058224 -11.582267 97914
15.522268 41.038795 -11.804701 97915
15.525148 41.060158 -12.036178 97916
15.520104 41.05014 -12.261331 97917
15.516719 41.046726 -12.488296 97918
15.387994 40.546448 -12.601147 97919
15.386151 40.54908 -12.827991 97920
15.379286 40.531807 -13.05053 97921
15.376928 40.532433 -13.277743 97922
15.374313 40.532043 -13.505173 97923
15.363842 40.500519 -13.725159 97924
15.363558 40.509422 -13.955797 97925
15.312193 40.406982 -16.237055 97926
15.218832 40.957237 -9.9503632 98545
15.2453 41.074974 -10.194521 98546
15.23954 41.06152 -10.416141 98547
15.239173 41.070038 -10.642093 98548
15.224498 41.020279 -10.857288 98549
15.222712 41.023041 -11.082707 98550
15.21787 41.013374 -11.30602 98551
15.211854 40.998924 -11.528639 98552
15.211197 41.006348 -11.756114 98553
15.202829 40.982346 -11.977293 98554
15.199815 40.980183 -12.20346 98555
15.201202 40.995995 -12.43406 98556
15.187467 40.950104 -12.651085 98557
15.185566 40.952541 -12.879428 98558
15.179706 40.93882 -13.104382 98559
15.171747 40.916557 -13.32758 98560
15.174644 40.938644 -13.562047 98561
15.162498 40.899296 -13.781655 98562
14.878796 40.927086 -9.9029369 99179
14.899911 41.026096 -10.143147 99180
14.894342 41.012852 -10.364226 99181
14.897643 41.036942 -10.592471 99182
14.882522 40.98349 -10.806499 99183
14.888975 41.020905 -11.038141 99184
14.874313 40.969406 -11.252714 99185
14.881183 41.00861 -11.485751 99186
14.863361 40.943794 -11.697763 99187
14.870638 40.984779 -11.932208 99188
14.859599 40.948559 -12.150558 99189
14.86457 40.97987 -12.384068 99190
14.861172 40.975918 -12.610254 99191
14.849436 40.936798 -12.828654 99192
14.848264 40.942253 -13.057714 99193
14.845045 40.939106 -13.285198 99194
14.830826 40.889534 -13.501651 99195
14.830714 40.899529 -13.733103 99196
14.548692 40.94429 -9.8640442 99814
14.542663 40.928398 -10.083675 99815
14.545231 40.949963 -10.310241 99816
14.549322 40.978188 -10.538578 99817
14.544376 40.967049 -10.760058 99818
14.531296 40.920475 -10.974913 99819
14.532934 40.938061 -11.202455 99820
14.530827 40.939335 -11.427216 99821
14.529362 40.943439 -11.652961 99822
14.518037 40.904549 -11.86999 99823
14.509125 40.876175 -12.089345 99824
14.509595 40.888767 -12.31795 99825
14.506337 40.885113 -12.543408 99826
14.503716 40.884254 -12.769913 99827
14.513041 40.935593 -13.00918 99828
14.501245 40.894714 -13.227162 99829
14.495312 40.879436 -13.451513 99830
14.483078 40.836658 -13.669305 99831
14.328559 41.510345 -9.9158678 100445
14.174226 40.824348 -10.020764 100446
14.198028 40.942406 -10.263737 100447
14.196875 40.947838 -10.487433 100448
14.196351 40.95612 -10.712062 100449
14.191357 40.944221 -10.933226 100450
14.190389 40.950531 -11.15824 100451
14.179873 40.9137 -11.374959 100452
14.173383 40.895084 -11.595488 100453
14.173446 40.906101 -11.822505 100454
14.169897 40.900822 -12.046501 100455
14.165284 40.890736 -12.269798 100456
14.159609 40.875854 -12.492333 100457
14.154554 40.8638 -12.715816 100458
14.155169 40.877419 -12.945654 100459
14.133707 40.791107 -13.152122 100460
14.14394 40.848331 -13.393312 100461
14.141346 40.847488 -13.621048 100462
13.822845 40.837128 -9.9759588 101079
13.840867 40.932487 -10.214408 101080
13.843856 40.957405 -10.441203 101081
13.831038 40.908188 -10.654694 101082
13.832778 40.927292 -10.881185 101083
13.831021 40.930008 -11.104996 101084
13.817603 40.877995 -11.318195 101085
13.822784 40.913292 -11.549254 101086
13.807329 40.851738 -11.760657 101087
13.807994 40.865875 -11.988157 101088
13.805175 40.863682 -12.212614 101089
13.80214 40.8605 -12.437243 101090
13.800514 40.863949 -12.663789 101091
13.793802 40.843498 -12.885221 101092
13.786066 40.818268 -13.105767 101093
13.787837 40.837753 -13.337402 101094
13.781292 40.818146 -13.56 101095
13.464361 40.811981 -9.9252758 101709
13.480926 40.903877 -10.162498 101710
13.471932 40.871208 -10.378292 101711
13.473816 40.891586 -10.603995 101712
13.470749 40.887836 -10.825635 101713
13.464328 40.867718 -11.044402 101714
13.457705 40.846653 -11.263162 101715
13.458758 40.863049 -11.489767 101716
13.458024 40.870758 -11.715092 101717
13.446086 40.823761 -11.929189 101718
13.44416 40.825665 -12.153938 101719
13.443586 40.834225 -12.380603 101720
13.441235 40.834114 -12.605801 101721
13.43399 40.810078 -12.825867 101722
13.432783 40.815609 -13.053165 101723
13.427466 40.801048 -13.276112 101724
13.425838 40.804543 -13.503838 101725
13.402999 40.704269 -13.705996 101726
13.117255 40.833687 -9.883461 102338
13.118696 40.852451 -10.107454 102339
13.122981 40.885674 -10.334554 102340
13.117932 40.871529 -10.553539 102341
13.114216 40.864151 -10.774023 102342
13.108786 40.848083 -10.993111 102343
13.100136 40.815666 -11.209163 102344
13.108712 40.870834 -11.443102 102345
13.098916 40.832615 -11.658517 102346
13.093474 40.816536 -11.878675 102347
13.090854 40.814838 -12.102212 102348
13.082759 40.785301 -12.31997 102349
13.082006 40.793129 -12.54634 102350
13.081044 40.799938 -12.772979 102351
13.07462 40.778954 -12.993568 102352
13.072506 40.77993 -13.219693 102353
13.061947 40.737896 -13.435743 102354
13.075885 40.82074 -13.683084 102355
12.826097 41.150887 -9.8924732 102965
12.752791 40.774509 -10.048538 102966
12.767865 40.866119 -10.285345 102967
12.763003 40.85218 -10.503929 102968
12.755045 40.821827 -10.719642 102969
12.752007 40.81757 -10.940463 102970
12.746599 40.800762 -11.15913 102971
12.742464 40.790714 -11.379378 102972
12.742498 40.802803 -11.604497 102973
12.735085 40.775394 -11.821765 102974
12.728215 40.750881 -12.039809 102975
12.730574 40.775364 -12.268846 102976
12.730557 40.787285 -12.495699 102977
12.722403 40.755993 -12.713159 102978
12.720556 40.758236 -12.938632 102979
12.712756 40.728848 -13.157003 102980
12.716277 40.759666 -13.390252 102981
12.709533 40.735935 -13.610693 102982
12.396653 40.739731 -9.9979544 103598
12.408987 40.820087 -10.23215 103599
12.403616 40.802494 -10.449524 103600
12.401566 40.803303 -10.670526 103601
12.401431 40.814743 -10.893927 103602
12.399716 40.817451 -11.116075 103603
12.389457 40.772827 -11.32911 103604
12.390169 40.789032 -11.554616 103605
12.378876 40.738678 -11.76667 103606
12.377141 40.741344 -11.990048 103607
12.371754 40.723766 -12.209417 103608
12.378656 40.774418 -12.444331 103609
12.370132 40.739479 -12.660563 103610
12.367658 40.738132 -12.884747 103611
12.363616 40.728107 -13.107302 103612
12.360769 40.724747 -13.331835 103613
12.362556 40.747147 -13.56318 103614
12.334373 40.72966 -16.07666 103615
12.034595 40.65881 -9.9402542 104232
12.045041 40.731785 -10.172356 104233
12.053285 40.792034 -10.403147 104234
12.049294 40.781433 -10.62164 104235
12.043798 40.762123 -10.838727 104236
12.036136 40.730251 -11.05354 104237
12.036314 40.743862 -11.277519 104238
12.035645 40.752598 -11.501006 104239
12.028812 40.725578 -11.717485 104240
12.029789 40.743904 -11.943799 104241
12.026602 40.738083 -12.165417 104242
12.023239 40.73127 -12.387175 104243
12.017718 40.711922 -12.606443 104244
12.017978 40.726189 -12.833774 104245
12.01277 40.708714 -13.05416 104246
12.006073 40.682587 -13.272748 104247
11.993939 40.624847 -13.48377 104248
11.686393 40.660442 -9.8973227 104867
11.702091 40.768726 -10.135248 104868
11.696503 40.747643 -10.351143 104869
11.697783 40.768326 -10.574912 104870
11.694423 40.760838 -10.793877 104871
11.68963 40.744637 -11.011438 104872
11.685949 40.735226 -11.230566 104873
11.684015 40.73645 -11.452147 104874
11.676198 40.701893 -11.66668 104875
11.675204 40.708889 -11.890123 104876
11.672141 40.703308 -12.111303 104877
11.667013 40.685162 -12.330058 104878
11.664886 40.685318 -12.553209 104879
11.665111 40.69986 -12.78012 104880
11.6639 40.705669 -13.005551 104881
11.659369 40.691254 -13.226624 104882
11.645876 40.622131 -13.434622 104883
11.345695 40.718662 -9.863678 105494
11.336847 40.675377 -10.074944 105495
11.33698 40.689552 -10.296453 105496
11.340598 40.726067 -10.522532 105497
11.335553 40.707157 -10.738845 105498
11.329754 40.683418 -10.954405 105499
11.331068 40.705276 -11.179126 105500
11.324357 40.675743 -11.394024 105501
11.322334 40.676243 -11.615249 105502
11.318338 40.664139 -11.834204 105503
11.312986 40.643341 -12.051569 105504
11.314703 40.667923 -12.279168 105505
11.310841 40.656738 -12.499354 105506
11.307422 40.648422 -12.720528 105507
11.303847 40.639114 -12.941833 105508
11.303109 40.648041 -13.16786 105509
11.314763 40.736629 -13.413862 105510
10.975439 40.65102 -10.025712 106129
10.978402 40.684929 -10.250304 106130
10.977181 40.690552 -10.470367 106131
10.977534 40.706863 -10.692828 106132
10.97429 40.698849 -10.911119 106133
10.974343 40.713161 -11.134089 106134
10.964501 40.6605 -11.344091 106135
10.960823 40.649593 -11.562579 106136
10.958714 40.649345 -11.783597 106137
10.954741 40.636475 -12.0023 106138
10.959174 40.680649 -12.233818 106139
10.950913 40.638748 -12.446863 106140
10.948204 40.634521 -12.668571 106141
10.944775 40.625435 -12.889542 106142
10.942328 40.623062 -13.112473 106143
10.934069 40.581192 -13.326255 106144
10.610885 40.603809 -9.9731712 106757
10.623426 40.708237 -10.20972 106758
10.620589 40.702354 -10.427498 106759
10.612189 40.656548 -10.638124 106760
10.612873 40.676018 -10.861143 106761
10.599339 40.593342 -11.064736 106762
10.59867 40.603092 -11.286431 106763
10.602177 40.642906 -11.514744 106764
10.597439 40.623474 -11.731414 106765
10.593102 40.606956 -11.948925 106766
10.596166 40.643688 -12.17832 106767
10.589397 40.609718 -12.392703 106768
10.588939 40.621185 -12.617538 106769
10.580829 40.577568 -12.830125 106770
10.577943 40.571598 -13.05167 106771
10.249252 40.556728 -9.9216413 107384
10.253839 40.606819 -10.14802 107385
10.254191 40.62463 -10.369349 107386
10.253899 40.637543 -10.59027 107387
10.24939 40.618275 -10.805551 107388
10.250872 40.644791 -11.029911 107389
10.246613 40.62748 -11.246163 107390
10.241719 40.605328 -11.461645 107391
10.242794 40.62883 -11.686812 107392
10.237643 40.604733 -11.902467 107393
10.232367 40.579689 -12.118093 107394
10.234042 40.607922 -12.34573 107395
10.226485 40.565445 -12.55803 107396
10.220824 40.537502 -12.773732 107397
10.21806 40.531784 -12.994856 107398
10.20812 40.471046 -13.203154 107399
9.8941183 40.545177 -9.8770638 108016
9.8969193 40.583786 -10.10107 108017
9.8971872 40.601837 -10.322058 108018
9.8906326 40.564198 -10.533289 108019
9.8892221 40.568584 -10.752457 108020
9.8905516 40.595371 -10.976351 108021
9.8803072 40.527634 -11.182148 108022
9.8823423 40.560234 -11.408014 108023
9.8818626 40.57235 -11.630321 108024
9.8760309 40.54071 -11.84387 108025
9.8719807 40.523659 -12.060686 108026
9.8668642 40.49789 -12.275832 108027
9.8692017 40.533169 -12.504921 108028
9.8661995 40.524792 -12.724724 108029
9.8616619 40.503826 -12.941934 108030
9.8753862 40.632542 -13.195224 108031
9.5329266 40.479347 -9.8239222 108644
9.5394993 40.55349 -10.053535 108645
9.5405788 40.579597 -10.275564 108646
9.5379648 40.57341 -10.492249 108647
9.5321217 40.538914 -10.703906 108648
9.5297318 40.534725 -10.92143 108649
9.5258951 40.517868 -11.136784 108650
9.526391 40.539017 -11.360014 108651
9.5192204 40.492962 -11.569971 108652
9.5208111 40.523796 -11.796088 108653
9.5187368 40.522499 -12.015974 108654
9.5147772 40.504669 -12.232626 108655
9.5107079 40.485878 -12.449314 108656
9.5100489 40.497116 -12.673136 108657
9.5048685 40.46862 -12.888216 108658
9.5030947 40.470112 -13.110622 108659
9.1725283 40.410046 -9.7709618 109275
9.1835356 40.531544 -10.008162 109276
9.1790714 40.506966 -10.220831 109277
9.1786509 40.520592 -10.440568 109278
9.1739807 40.494118 -10.653286 109279
9.1716938 40.49015 -10.87042 109280
9.1701231 40.493027 -11.089218 109281
9.1684484 40.494923 -11.308214 109282
9.163784 40.468536 -11.52181 109283
9.1590166 40.441216 -11.735357 109284
9.1648264 40.514111 -11.970508 109285
9.1565647 40.453716 -12.177583 109286
9.1514883 40.423504 -12.391262 109287
9.1520338 40.446667 -12.617249 109288
9.1487894 40.433895 -12.835531 109289
9.1417704 40.385292 -13.045647 109290
8.8231382 40.419498 -9.7322178 109905
8.8240156 40.447121 -9.9529686 109906
8.8221159 40.446297 -10.169264 109907
8.8205023 40.44841 -10.386415 109908
8.8180256 40.441734 -10.602293 109909
8.8146896 40.426266 -10.816785 109910
8.8143063 40.441109 -11.037402 109911
8.8119211 40.435432 -11.254429 109912
8.8071585 40.405369 -11.466807 109913
8.8072338 40.425049 -11.68967 109914
8.8049316 40.420334 -11.907906 109915
8.7998848 40.387398 -12.120363 109916
8.8015423 40.423504 -12.348275 109917
8.7974377 40.400291 -12.563487 109918
8.7939873 40.383869 -12.780491 109919
8.791194 40.374237 -12.999386 109920
8.4971924 40.36998 -9.7037239 110535
8.5003777 40.425236 -9.9288054 110536
8.4967651 40.404892 -10.141385 110537
8.4962378 40.4189 -10.360319 110538
8.4970236 40.447586 -10.582439 110539
8.4910402 40.400871 -10.790857 110540
8.4905863 40.415844 -11.011194 110541
8.4861879 40.386826 -11.223287 110542
8.4841557 40.384205 -11.440859 110543
8.4795837 40.353294 -11.652908 110544
8.4801617 40.379921 -11.877298 110545
8.4775047 40.370461 -12.0945 110546
8.4754534 40.367798 -12.313535 110547
8.4726162 40.356377 -12.530985 110548
8.468996 40.336208 -12.746741 110549
8.4666719 40.330589 -12.966179 110550
8.1874409 40.301338 -9.682271 111165
8.1909122 40.364578 -9.9082451 111166
8.1900826 40.375713 -10.125944 111167
8.1894884 40.38979 -10.344601 111168
8.1859035 40.367592 -10.557014 111169
8.1819153 40.340542 -10.768654 111170
8.183651 40.383007 -10.993894 111171
8.1788588 40.346218 -11.204144 111172
8.1791334 40.371025 -11.42695 111173
8.1754646 40.347961 -11.640422 111174
8.1729984 40.339546 -11.857184 111175
8.170455 40.330158 -12.074063 111176
8.1687822 40.331478 -12.293637 111177
8.1660671 40.320129 -12.510781 111178
8.1655016 40.334991 -12.734298 111179
8.165163 40.352703 -12.959064 111180
7.8771067 40.23814 -9.6621685 111796
7.8828144 40.336884 -9.8937798 111797
7.8807583 40.332367 -10.108458 111798
7.8789206 40.330822 -10.323957 111799
7.8758316 40.312614 -10.536703 111800
7.8709068 40.269951 -10.745001 111801
7.8720808 40.308632 -10.969032 111802
7.8678932 40.275833 -11.179603 111803
7.8686104 40.308575 -11.403543 111804
7.8648624 40.281681 -11.615799 111805
7.8645449 40.30069 -11.83793 111806
7.8600645 40.264084 -12.048591 111807
7.8590069 40.273293 -12.26946 111808
7.8558388 40.25425 -12.484457 111809
7.8517227 40.222584 -12.696801 111810
7.8484049 40.201622 -12.911809 111811
7.5741367 40.203384 -9.647438 112429
7.5754261 40.247166 -9.8693466 112430
7.5726442 40.230957 -10.081437 112431
7.571126 40.233448 -10.297078 112432
7.5703382 40.246746 -10.51507 112433
7.5681534 40.239441 -10.729635 112434
7.5656347 40.227264 -10.943544 112435
7.5606661 40.178894 -11.150535 112436
7.5606623 40.203949 -11.372341 112437
7.5550394 40.145908 -11.577538 112438
7.5575323 40.208035 -11.808045 112439
7.554677 40.19104 -12.022403 112440
7.5535965 40.200363 -12.24283 112441
7.5498161 40.169743 -12.454752 112442
7.5514774 40.219868 -12.685403 112443
7.2745991 40.219887 -9.4275942 113060
7.2697039 40.166229 -9.632741 113061
7.2735691 40.257324 -9.8624334 113062
7.2676077 40.186073 -10.064809 113063
7.2677708 40.216141 -10.285085 113064
7.2654963 40.205933 -10.498543 113065
7.2626925 40.18692 -10.710596 113066
7.2574606 40.127766 -10.915067 113067
7.2587919 40.177422 -11.140896 113068
7.2576971 40.186874 -11.359409 113069
7.254652 40.164047 -11.57171 113070
7.2541361 40.183254 -11.793085 113071
7.2523794 40.181919 -12.010598 113072
7.2496243 40.164005 -12.224846 113073
7.2484465 40.172394 -12.445274 113074
7.2441664 40.129181 -12.654348 113075
7.2430973 40.139481 -12.876009 113076
6.9649181 40.085499 -9.3979282 113689
6.9661198 40.138344 -9.6200619 113690
6.964118 40.131081 -9.8327284 113691
6.9633188 40.146492 -10.049612 113692
6.9603739 40.12159 -10.259727 113693
6.9615536 40.174335 -10.484244 113694
6.9576702 40.131824 -10.691618 113695
6.955821 40.127636 -10.906358 113696
6.9543343 40.130314 -11.122783 113697
6.9517536 40.112442 -11.335445 113698
6.9501562 40.113174 -11.552175 113699
6.9476767 40.097294 -11.765789 113700
6.9445276 40.068741 -11.976922 113701
6.9429731 40.070465 -12.194875 113702
6.9432173 40.10627 -12.420934 113703
6.940114 40.078712 -12.633195 113704
6.9412632 40.131889 -12.864555 113705
6.6617756 40.027287 -9.381094 114320
6.6619024 40.064449 -9.6002607 114321
6.6616192 40.092716 -9.8185558 114322
6.6611032 40.116066 -10.036557 114323
6.6578369 40.079407 -10.244334 114324
6.6557846 40.069359 -10.457007 114325
6.6549473 40.085846 -10.674933 114326
6.6528053 40.073875 -10.887871 114327
6.6498995 40.045277 -11.097777 114328
6.6487436 40.054913 -11.315517 114329
6.6462831 40.036163 -11.527864 114330
6.64503 40.043839 -11.746007 114331
6.6433697 40.042706 -11.962715 114332
6.6413069 40.032784 -12.177888 114333
6.6386671 40.010181 -12.390535 114334
6.6384583 40.041172 -12.615696 114335
6.6381979 40.071095 -12.84133 114336
6.3602142 39.982265 -9.3668718 114944
6.3610172 40.043156 -9.5896797 114945
6.3602543 40.063602 -9.8064585 114946
6.3571758 40.024002 -10.013245 114947
6.3554249 40.018906 -10.226186 114948
6.3542385 40.028587 -10.442129 114949
6.3528652 40.033363 -10.657577 114950
6.3508444 40.021458 -10.870208 114951
6.348938 40.012524 -11.083676 114952
6.347743 40.022228 -11.301194 114953
6.3456068 40.00745 -11.514129 114954
6.34478 40.026917 -11.734539 114955
6.3427153 40.014103 -11.948571 114956
6.3410549 40.012039 -12.165257 114957
6.3389101 39.997288 -12.37949 114958
6.3368769 39.98547 -12.594686 114959
6.3333187 39.933762 -12.80088 114960
6.0826311 39.876183 -9.3835917 115567
6.083601 39.956757 -9.6092463 115568
6.0819702 39.953491 -9.8216181 115569
6.0806742 39.96109 -10.036182 115570
6.0788622 39.951988 -10.248139 115571
6.0773802 39.953728 -10.462347 115572
6.0765915 39.978077 -10.68118 115573
6.0745592 39.962166 -10.892804 115574
6.072258 39.937466 -11.102909 115575
6.0716114 39.966702 -11.324073 115576
6.0688848 39.928345 -11.531898 115577
6.0679293 39.947758 -11.751979 115578
6.066103 39.938797 -11.966506 115579
6.0643616 39.932762 -12.182005 115580
6.0622311 39.914055 -12.395011 115581
6.0598307 39.8866 -12.606262 115582
6.0582323 39.885456 -12.823864 115583
5.3472185 39.815166 -9.5223341 116188
5.3462 39.867615 -9.7434034 116189
5.3448839 39.887512 -9.9596195 116190
5.3430634 39.851276 -10.166372 116191
5.3415842 39.853493 -10.380129 116192
5.3400593 39.850819 -10.593331 116193
5.3388014 39.878613 -10.812679 116194
5.3368044 39.82296 -11.016315 116195
5.3352127 39.813496 -11.229054 116196
5.3340578 39.854019 -11.452316 116197
5.332408 39.838684 -11.664643 116198
5.3308544 39.834129 -11.879528 116199
5.3290157 39.797344 -12.087735 116200
5.3272381 39.767437 -12.297555 116201
5.3258543 39.783413 -12.51796 116202
5.3244219 39.794468 -12.737799 116203
5.3229103 39.796711 -12.956098 116204
5.2652483 39.758724 -9.5298223 116812
5.2638988 39.779591 -9.7453556 116813
5.2625656 39.803429 -9.9618998 116814
5.2609921 39.790829 -10.172499 116815
5.2593594 39.769424 -10.381711 116816
5.2580223 39.79427 -10.599712 116817
5.2564754 39.786697 -10.81208 116818
5.2549944 39.789936 -11.026855 116819
5.2533064 39.760826 -11.235544 116820
5.2518597 39.769978 -11.452186 116821
5.2502527 39.754654 -11.664165 116822
5.2488613 39.773575 -11.883732 116823
5.2473612 39.775852 -12.100236 116824
5.2458029 39.769337 -12.315208 116825
5.2441177 39.74234 -12.525878 116826
5.2425671 39.737782 -12.741944 116827
5.2405586 39.658287 -12.940651 116828
5.2397718 39.666313 -9.5197649 117436
5.2387972 39.754288 -9.7462282 117437
5.2372894 39.75053 -9.9578876 117438
5.2357054 39.734013 -10.167562 117439
5.2340927 39.712631 -10.376533 117440
5.2325382 39.702122 -10.587681 117441
5.2310905 39.710312 -10.802662 117442
5.2295666 39.705746 -11.015574 117443
5.228056 39.704144 -11.229405 117444
5.2265615 39.70549 -11.444201 117445
5.2251444 39.721519 -11.662472 117446
5.223546 39.705257 -11.874363 117447
5.2218962 39.680225 -12.084595 117448
5.2204132 39.68549 -12.301771 117449
5.2189598 39.697556 -12.520969 117450
5.2173338 39.677437 -12.733226 117451
5.2157393 39.664154 -12.947357 117452
5.028966 40.411598 -9.4719973 118062
5.0278835 39.604012 -9.5533657 118063
5.0263758 39.664253 -9.7749987 118064
5.0248938 39.672218 -9.9883862 118065
5.0234098 39.675289 -10.201293 118066
5.0219383 39.657722 -10.410779 118067
5.0204573 39.65102 -10.622488 118068
5.01898 39.635509 -10.83279 118069
5.0174761 39.654396 -11.050074 118070
5.0160227 39.60561 -11.254279 118071
5.0145121 39.626465 -11.472749 118072
5.0129986 39.646309 -11.691579 118073
5.011508 39.633854 -11.904046 118074
5.0100107 39.628254 -12.118305 118075
5.0084972 39.637295 -12.336208 118076
5.0070248 39.598545 -12.543691 118077
5.0055189 39.593933 -12.75921 118078
5.0040646 39.533859 -12.961938 118079
4.7691727 39.672035 -9.4073553 118693
4.7689676 39.519928 -9.5936451 118694
4.767067 39.572124 -9.8137093 118695
4.7654657 39.587837 -10.028172 118696
4.7641335 39.571083 -10.237273 118697
4.762476 39.592735 -10.453624 118698
4.7613897 39.546566 -10.657725 118699
4.7598448 39.554504 -10.872205 118700
4.7582703 39.565392 -11.087697 118701
4.7570715 39.532173 -11.294742 118702
4.755578 39.533287 -11.508958 118703
4.7539854 39.545174 -11.725845 118704
4.7526731 39.524784 -11.936272 118705
4.7509575 39.550331 -12.157037 118706
4.7496195 39.53191 -12.368565 118707
4.7480841 39.535938 -12.585499 118708
4.7467966 39.511703 -12.796286 118709
4.745306 39.509869 -13.012639 118710
4.5104427 39.434975 -9.4239836 119313
4.5085125 39.464325 -9.6395006 119314
4.5065308 39.496635 -9.8560934 119315
4.5048771 39.508251 -10.069654 119316
4.5038147 39.483482 -10.277079 119317
4.5024462 39.477455 -10.488084 119318
4.5010262 39.474419 -10.699939 119319
4.4994287 39.482201 -10.914218 119320
4.4980373 39.477242 -11.126401 119321
4.4969139 39.455647 -11.335531 119322
4.495677 39.440952 -11.546275 119323
4.4944544 39.425316 -11.757072 119324
4.4925356 39.451729 -11.977234 119325
4.4908218 39.465405 -12.195227 119326
4.4897051 39.442951 -12.405602 119327
4.4881487 39.446842 -12.622266 119328
4.4866056 39.449741 -12.839165 119329
4.485981 39.397186 -13.04325 119330
4.2526646 39.297684 -9.4570208 119939
4.2490902 39.386078 -9.682004 119940
4.2473373 39.398521 -9.8950062 119941
4.2462664 39.382435 -10.103395 119942
4.2447453 39.385098 -10.315362 119943
4.2440014 39.355354 -10.521668 119944
4.241951 39.3797 -10.738343 119945
4.2409678 39.359871 -10.946986 119946
4.2392416 39.370487 -11.16188 119947
4.2381077 39.356613 -11.372246 119948
4.2365208 39.361366 -11.586751 119949
4.2353325 39.349503 -11.798147 119950
4.2339802 39.344498 -12.011327 119951
4.2317848 39.373661 -12.232456 119952
4.2313299 39.331596 -12.43812 119953
4.2291813 39.358746 -12.659838 119954
4.2288637 39.310909 -12.864546 119955
4.2275181 39.304951 -13.079334 119956
4.2122946 39.310223 -15.269411 119957
3.9557552 39.246162 -9.5034838 120566
3.9524717 39.302792 -9.723074 120567
3.9507599 39.311131 -9.935113 120568
3.9486904 39.330307 -10.149475 120569
3.9472971 39.32885 -10.360575 120570
3.9465714 39.306793 -10.568149 120571
3.9460049 39.279888 -10.774943 120572
3.9440546 39.295227 -10.990122 120573
3.9431581 39.278229 -11.199321 120574
3.9412642 39.291622 -11.414968 120575
3.9395256 39.30011 -11.630093 120576
3.9385929 39.284164 -11.840453 120577
3.9371719 39.282894 -12.054276 120578
3.9355221 39.288456 -12.270021 120579
3.9346762 39.269638 -12.480683 120580
3.9329567 39.277126 -12.697714 120581
3.9324265 39.248608 -12.906716 120582
3.9303818 39.265789 -13.126945 120583
3.9194365 39.146122 -15.280735 120584
3.6312027 39.194569 -9.5491152 121193
3.6261187 39.28249 -9.7739334 121194
3.6266651 39.235474 -9.9763145 121195
3.6247807 39.246597 -10.188997 121196
3.6232634 39.24889 -10.400489 121197
3.6224413 39.23452 -10.609208 121198
3.6205053 39.246689 -10.823255 121199
3.6187706 39.253967 -11.036802 121200
3.6183929 39.228928 -11.244267 121201
3.6172266 39.222542 -11.455725 121202
3.6154432 39.230843 -11.670599 121203
3.6143541 39.22253 -11.882369 121204
3.6133032 39.213268 -12.094253 121205
3.6114712 39.222542 -12.310624 121206
3.6103315 39.215225 -12.523705 121207
3.6087389 39.218636 -12.739648 121208
3.6076775 39.209381 -12.953046 121209
3.6040297 39.261288 -13.181663 121210
3.2695713 39.838875 -9.499402 121810
3.3030519 39.154678 -9.5979347 121811
3.2993946 39.199013 -9.8153143 121812
3.2973909 39.210865 -10.027702 121813
3.2964401 39.202091 -10.236804 121814
3.2953339 39.196312 -10.44671 121815
3.2938719 39.197449 -10.658213 121816
3.291853 39.209396 -10.872169 121817
3.2922888 39.173336 -11.077076 121818
3.2893639 39.202946 -11.29534 121819
3.2896919 39.168953 -11.50106 121820
3.2872601 39.18877 -11.718261 121821
3.2876806 39.15292 -11.923982 121822
3.2857437 39.162971 -12.139931 121823
3.2848558 39.152542 -12.351761 121824
3.2834148 39.152843 -12.566386 121825
3.2818213 39.156044 -12.782131 121826
3.2800751 39.16214 -12.999037 121827
3.2811766 39.112904 -13.202942 121828
2.9665937 39.377327 -9.479908 122426
2.9821587 39.095352 -9.6431818 122427
2.9776564 39.14732 -9.8617773 122428
2.977704 39.123569 -10.067765 122429
2.9754419 39.138199 -10.280821 122430
2.9739428 39.140079 -10.491976 122431
2.9727364 39.137093 -10.702562 122432
2.9737101 39.097881 -10.906412 122433
2.9711952 39.116516 -11.121804 122434
2.9706268 39.102867 -11.331148 122435
2.9698753 39.092186 -11.541365 122436
2.9684715 39.092281 -11.754168 122437
2.967124 39.091404 -11.967157 122438
2.9655962 39.09346 -12.181195 122439
2.9643612 39.090641 -12.39456 122440
2.9634171 39.082962 -12.607199 122441
2.9615889 39.089867 -12.823641 122442
2.9593458 39.103531 -13.04222 122443
2.9592752 39.081272 -13.252564 122444
2.9455481 39.071098 -15.433667 122445
2.6614656 39.018608 -9.4775085 123049
2.6583614 39.043777 -9.6908779 123050
2.6534128 39.095497 -9.9093876 123051
2.6537075 39.071552 -10.115211 123052
2.6521578 39.074184 -10.325999 123053
2.6517601 39.060173 -10.534031 123054
2.6514254 39.045235 -10.742103 123055
2.6497946 39.048958 -10.954051 123056
2.6484995 39.047806 -11.165417 123057
2.6456356 39.069153 -11.381763 123058
2.6490889 38.999668 -11.579625 123059
2.6447239 39.042511 -11.801324 123060
2.6420574 39.060917 -12.018461 123061
2.6413565 39.051052 -12.229854 123062
2.6407175 39.040237 -12.441356 123063
2.6401434 39.028469 -12.652963 123064
2.6374702 39.046803 -12.872041 123065
2.6394634 38.998169 -13.075532 123066
2.6366501 39.018406 -13.296007 123067
2.6273336 38.948807 -15.458555 123068
2.3411541 38.935829 -9.5206661 123675
2.3341427 39.007969 -9.7418365 123676
2.3302946 39.039776 -9.9569197 123677
2.3314543 39.007786 -10.161172 123678
2.3311424 38.994522 -10.368907 123679
2.329361 38.999931 -10.580374 123680
2.3288841 38.98872 -10.78903 123681
2.3269396 38.996132 -11.001619 123682
2.3253746 38.998684 -11.213654 123683
2.3278837 38.949486 -11.415402 123684
2.3267717 38.946251 -11.626782 123685
2.3260393 38.938168 -11.837477 123686
2.3204679 38.991444 -12.062011 123687
2.3217268 38.958046 -12.267959 123688
2.3193741 38.97039 -12.48451 123689
2.321084 38.931248 -12.689556 123690
2.3167362 38.968796 -12.91298 123691
2.3182831 38.931648 -13.119023 123692
2.3150082 38.955532 -13.340312 123693
2.3029776 38.929886 -15.514809 123694
1.9936829 39.441612 -6.1099782 124281
1.9209585 40.02721 -9.5466299 124297
2.0208302 38.872849 -9.5675545 124298
2.0142241 38.932922 -9.7866278 124299
2.0121794 38.940956 -9.9973927 124300
2.0112476 38.936272 -10.20626 124301
2.0110865 38.922817 -10.41379 124302
2.0103149 38.916275 -10.622849 124303
2.0089378 38.916622 -10.833532 124304
2.011076 38.87693 -11.036622 124305
2.0091715 38.883217 -11.24906 124306
2.0076914 38.884644 -11.460917 124307
2.0059528 38.889008 -11.673794 124308
2.0018959 38.919659 -11.892811 124309
2.0020332 38.902599 -12.10194 124310
2.000886 38.900154 -12.314626 124311
2.0008469 38.885086 -12.524801 124312
1.9981527 38.900116 -12.742348 124313
1.9979353 38.887001 -12.953722 124314
1.9981432 38.869064 -13.164243 124315
2.0011606 38.819237 -13.367107 124316
1.9797869 38.903236 -15.569863 124317
1.6571207 39.263729 -9.4812183 124911
1.7009411 38.798004 -9.6132889 124912
1.6949539 38.84605 -9.8302002 124913
1.6913414 38.869564 -10.043514 124914
1.6920033 38.849014 -10.249356 124915
1.6900911 38.85495 -10.460277 124916
1.6875095 38.867767 -10.672906 124917
1.6872969 38.856167 -10.881232 124918
1.6875525 38.839729 -11.088842 124919
1.6867571 38.834076 -11.298876 124920
1.6864319 38.823582 -11.508224 124921
1.6835451 38.839405 -11.723482 124922
1.6833982 38.827015 -11.933123 124923
1.6803188 38.844769 -12.149773 124924
1.6795979 38.838226 -12.361473 124925
1.6774588 38.846241 -12.576913 124926
1.6791878 38.814514 -12.783453 124927
1.6787415 38.805099 -12.995526 124928
1.6806469 38.771523 -13.202021 124929
1.6734638 38.689266 -15.570622 124930
1.3622227 38.782272 -9.4673319 125533
1.3640804 38.752518 -9.6707182 125534
1.3601742 38.776749 -9.8835421 125535
1.3588781 38.776516 -10.092532 125536
1.3551712 38.798824 -10.305972 125537
1.354907 38.788872 -10.513899 125538
1.3543234 38.781914 -10.722651 125539
1.3542538 38.770111 -10.930739 125540
1.351779 38.780792 -11.143605 125541
1.3502398 38.782703 -11.355135 125542
1.3529634 38.744728 -11.558666 125543
