# .PCD v0.7 - Point Cloud Data file format
VERSION 0.7
FIELDS x y z intensity
SIZE 4 4 4 4
TYPE F F F F
COUNT 1 1 1 1
WIDTH 1002
HEIGHT 1
VIEWPOINT 0 0 0 1 0 0 0
POINTS 1002
DATA ascii
48.40683 126.98331 -9.68923 90901
48.387886 126.95045 -10.306785 90902
48.377075 126.9415 -10.926037 90903
48.370522 126.94508 -11.546494 90904
47.476425 126.9024 -5.2543836 91526
47.467705 126.89917 -5.8707819 91527
47.459393 126.89719 -6.4873466 91528
47.442657 126.86988 -7.1029973 91529
47.438972 126.88174 -7.7204165 91530
47.415485 126.83418 -8.3351173 91531
47.407555 126.83334 -8.9522285 91532
47.388687 126.79964 -9.5676146 91533
47.377792 126.78989 -10.184532 91534
47.36982 126.78896 -10.802286 91535
47.362259 126.78925 -11.420452 91536
46.551949 126.87784 -2.07868 92160
46.52533 126.81927 -2.6929243 92161
46.516472 126.81522 -3.307394 92162
46.510509 126.82004 -3.9220352 92163
46.522278 126.87931 -4.5380378 92164
46.491123 126.80678 -5.1510677 92165
46.461609 126.7393 -5.7637191 92166
46.458511 126.75291 -6.3788528 92167
46.439735 126.71838 -6.9922934 92168
46.431248 126.71546 -7.6070595 92169
46.408344 126.66824 -8.2197771 92170
46.396965 126.65644 -8.8342476 92171
46.39093 126.66109 -9.4498434 92172
46.379124 126.64799 -10.064628 92173
46.365257 126.62856 -10.679165 92174
46.339447 126.57237 -11.291157 92175
45.54771 126.70355 -1.9843429 92795
45.539917 126.70239 -2.597095 92796
45.504925 126.63908 -3.8215966 92797
45.489853 126.61504 -4.4336696 92798
45.472763 126.58466 -5.0454464 92799
45.468189 126.59364 -5.6582885 92800
45.460381 126.59245 -6.2709837 92801
45.448135 126.57726 -6.883276 92802
45.420536 126.51385 -7.493443 92803
45.4212 126.53929 -8.1076326 92804
45.413776 126.53934 -8.7209139 92805
45.380142 126.45687 -9.3296185 92806
45.384399 126.49367 -9.945384 92807
45.362453 126.44801 -10.556199 92808
45.362648 126.47205 -11.171965 92809
44.574627 126.62149 -1.8906682 93430
44.545696 126.55195 -2.5013535 93431
44.519531 126.4913 -3.1115344 93432
44.513947 126.49687 -3.722302 93433
44.49926 126.47314 -4.3325653 93434
44.481419 126.43927 -4.9424353 93435
44.477028 126.44865 -5.5534229 93436
44.436264 126.34096 -6.1605453 93437
44.450439 126.41016 -6.7738237 93438
44.446033 126.41954 -7.385283 93439
44.417149 126.35005 -7.9931965 93440
44.404049 126.33144 -8.6034117 93441
44.40556 126.35989 -9.2164211 93442
44.374325 126.28279 -9.8233891 93443
44.380146 126.32519 -10.437948 93444
44.362698 126.29258 -11.047856 93445
44.370457 126.34126 -11.664 93446
43.718391 126.97964 -4.2462778 94072
43.497868 126.27632 -4.8406544 94073
43.485516 126.25934 -5.4489603 94074
43.474716 126.24747 -6.0574155 94075
43.455025 126.20625 -6.664794 94076
43.454285 126.22757 -7.2746639 94077
43.444637 126.21954 -7.883533 94078
43.430756 126.19751 -8.4918194 94079
43.413784 126.16527 -9.0995731 94080
43.396049 126.13051 -9.7071476 94081
43.391418 126.13905 -10.317562 94082
43.382553 126.13358 -10.927382 94083
43.363659 126.09502 -11.534998 94084
42.509724 126.08707 -4.7388577 94705
42.51133 126.11642 -5.3465266 94706
42.497429 126.09343 -5.9528565 94707
42.470329 126.02571 -6.5574322 94708
42.479866 126.08197 -7.16682 94709
42.452385 126.01303 -7.7710414 94710
42.451355 126.03352 -8.3794584 94711
42.43259 125.994 -8.9849405 94712
42.440216 126.04386 -9.5957499 94713
42.421078 126.00307 -10.201403 94714
42.400043 125.95596 -10.806548 94715
42.387314 125.93689 -11.413689 94716
41.4846 125.93982 -5.2398014 95341
41.486591 125.97098 -5.8459353 95342
41.472347 125.94579 -6.4504161 95343
41.445213 125.87583 -7.0529852 95344
41.433945 125.86096 -7.6576486 95345
41.43631 125.89344 -8.2647886 95346
41.421356 125.8658 -8.8691435 95347
41.422253 125.8932 -9.4767971 95348
41.403629 125.85281 -10.080636 95349
41.383183 125.80603 -10.683977 95350
41.379646 125.8181 -11.291535 95351
40.415886 125.83975 -5.1300592 95970
40.400616 125.80979 -5.7325511 95971
40.402935 125.84276 -6.3371844 95972
40.377617 125.77693 -6.9382782 95973
40.361286 125.74324 -7.5404067 95974
40.365772 125.78396 -8.1461449 95975
40.342644 125.72595 -8.7471342 95976
40.340313 125.74235 -9.3522253 95977
40.324383 125.71005 -9.9546642 95978
40.310955 125.68677 -10.557729 95979
40.295753 125.65708 -11.160447 95980
37.620808 126.17337 -4.8435736 96602
37.604675 126.13663 -5.4442244 96603
37.593864 126.12058 -6.0453668 96604
37.583401 126.10587 -6.6465783 96605
37.574257 126.09636 -7.248055 96606
37.561497 126.07269 -7.848979 96607
37.552044 126.06195 -8.4505854 96608
37.554859 126.09897 -9.0550213 96609
37.530193 126.02901 -9.6535711 96610
37.522758 126.0261 -10.256156 96611
37.502735 125.97424 -10.855625 96612
37.508862 126.02422 -11.46252 96613
37.224426 125.88485 -4.8036833 97236
37.214386 125.87148 -5.4033747 97237
37.206646 125.86721 -6.0033789 97238
37.17955 125.78681 -6.600616 97239
37.176437 125.8007 -7.2013001 97240
37.166771 125.78885 -7.8010988 97241
37.156456 125.77442 -8.4008923 97242
37.141548 125.74197 -8.9997883 97243
37.138802 125.75734 -9.6015463 97244
37.122601 125.7198 -10.200308 97245
37.112648 125.70684 -10.800749 97246
37.102051 125.69133 -11.401221 97247
37.179535 125.62332 -2.4021399 97870
37.167152 125.60075 -3.0004864 97871
37.148201 125.55238 -3.5982802 97872
37.155273 125.60612 -4.1977186 97873
37.123207 125.5062 -4.7939944 97874
37.121075 125.52388 -5.392869 97875
37.115337 125.5274 -5.9915557 97876
37.093193 125.46641 -6.587997 97877
37.074356 125.4184 -7.1846108 97878
37.063732 125.40271 -7.782505 97879
37.066254 125.4387 -8.3831329 97880
37.041553 125.36763 -8.9783564 97881
37.029003 125.34435 -9.576086 97882
37.016796 125.32243 -10.173988 97883
37.012783 125.33278 -10.774246 97884
36.994377 125.28645 -11.370745 97885
36.227932 125.49179 -2.3118517 98508
36.232208 125.53553 -2.9093411 98509
36.223377 125.52628 -3.5064933 98510
36.182224 125.38637 -4.1011372 98511
36.177898 125.39536 -4.6981082 98512
36.162388 125.35911 -5.2940011 98513
36.16066 125.37855 -5.8915029 98514
36.138161 125.31396 -6.4862185 98515
36.12558 125.28956 -7.0821972 98516
36.132515 125.34408 -7.6817851 98517
36.114849 125.2991 -8.2770538 98518
36.100395 125.2671 -8.8728752 98519
36.084366 125.22871 -9.4682922 98520
36.0658 125.18002 -10.062989 98521
36.060955 125.18697 -10.661375 98522
36.050716 125.172 -11.258553 98523
35.195915 125.39671 -2.213207 99144
35.159813 125.2998 -3.4031575 99145
35.149704 125.28451 -3.9981525 99146
35.146442 125.29781 -4.5937424 99147
35.128613 125.25024 -5.1878963 99148
35.112049 125.20793 -5.7819147 99149
35.106037 125.20975 -6.3772988 99150
35.090122 125.17018 -6.9711819 99151
35.080112 125.15532 -7.5660176 99152
35.065792 125.12235 -8.160038 99153
35.056435 125.1102 -8.755125 99154
35.03812 125.06055 -9.3481646 99155
35.0322 125.06277 -9.9443169 99156
35.026588 125.06631 -10.540883 99157
35.02129 125.07121 -11.137907 99158
34.138882 125.20482 -2.1141014 99778
34.135654 125.21835 -2.7080052 99779
34.122829 125.19037 -3.3015223 99780
34.114834 125.18326 -3.8952017 99781
34.102654 125.15802 -4.4884996 99782
34.081779 125.0952 -5.0806842 99783
34.072933 125.08442 -5.6740222 99784
34.060802 125.05943 -6.2669044 99785
34.046299 125.02412 -6.8593206 99786
34.039307 125.02135 -7.4530492 99787
34.035328 125.03161 -8.0475979 99788
34.016376 124.97707 -8.6390219 99789
34.005825 124.95892 -9.2323151 99790
33.998291 124.95381 -9.8265362 99791
33.982979 124.91507 -10.418768 99792
33.969788 124.88547 -11.011624 99793
33.973057 124.92719 -11.609968 99794
33.032776 125.01652 -4.9726691 100413
33.019855 124.98663 -5.5640941 100414
33.005493 124.95032 -6.1551657 100415
32.994923 124.93101 -6.746738 100416
32.973362 124.86237 -7.3361788 100417
32.977329 124.90822 -7.9306917 100418
32.962467 124.86965 -8.52143 100419
32.957474 124.87535 -9.1145868 100420
32.937153 124.81224 -9.7038536 100421
32.924953 124.78561 -10.29525 100422
32.918255 124.78371 -10.888465 100423
32.905807 124.75594 -11.480072 100424
31.948254 124.84132 -4.8599286 101046
31.953388 124.89392 -5.4519825 101047
31.947887 124.89709 -6.042985 101048
31.923386 124.81177 -6.6308122 101049
31.920162 124.82552 -7.2222629 101050
31.905495 124.78596 -7.8115344 101051
31.892796 124.75562 -8.4011555 101052
31.887104 124.75789 -8.9925737 101053
31.872498 124.71861 -9.5817757 101054
31.85902 124.68462 -10.17126 101055
31.853374 124.68713 -10.763288 101056
31.832119 124.61688 -11.35031 101057
30.874413 124.69202 -4.7486739 101676
30.876881 124.73341 -5.3387346 101677
30.865887 124.70964 -5.9271674 101678
30.864872 124.73423 -6.5173345 101679
30.844749 124.66628 -7.1040506 101680
30.841076 124.67801 -7.6940284 101681
30.826389 124.63635 -8.2816343 101682
30.821674 124.64303 -8.8717699 101683
30.809975 124.6159 -9.4602194 101684
30.798557 124.59015 -10.048805 101685
30.790668 124.58144 -10.638637 101686
30.783051 124.57412 -11.228826 101687
29.818504 124.62589 -5.2280865 102306
29.815651 124.64174 -5.8163891 102307
29.799068 124.58841 -6.4024744 102308
29.799866 124.62274 -6.9918261 102309
29.781513 124.56046 -7.5773182 102310
29.770447 124.53487 -8.1642923 102311
29.774395 124.58514 -8.755373 102312
29.755325 124.51927 -9.340373 102313
29.744301 124.49397 -9.9276218 102314
29.73666 124.48573 -10.516103 102315
29.72076 124.43584 -11.101849 102316
29.726833 124.4969 -11.69597 102317
28.767506 124.54099 -5.1187077 102933
28.751987 124.49052 -5.7036834 102934
28.740479 124.46111 -6.2890959 102935
28.742695 124.5038 -6.877284 102936
28.728737 124.46153 -7.4622817 102937
28.719532 124.44424 -8.0483341 102938
28.704624 124.39694 -8.6328754 102939
28.693718 124.37069 -9.2184649 102940
28.685318 124.35761 -9.8049192 102941
28.68388 124.38124 -10.393992 102942
28.658131 124.2769 -10.974528 102943
28.663177 124.33464 -11.566704 102944
27.708157 124.39211 -5.0083928 103565
27.708981 124.42857 -5.5945053 103566
27.692863 124.37205 -6.1778817 103567
27.682022 124.34446 -6.7620459 103568
27.672165 124.32224 -7.3463812 103569
27.66399 124.30933 -7.9311738 103570
27.659649 124.31746 -8.5171795 103571
27.651268 124.30344 -9.1022587 103572
27.631004 124.22403 -9.6834917 103573
27.624565 124.2207 -10.269301 103574
27.619106 124.22268 -10.855776 103575
27.605328 124.17898 -11.43921 103576
26.713711 124.41333 -1.9830966 104194
26.706997 124.40765 -2.5670068 104195
26.695728 124.37585 -3.1505938 104196
26.687462 124.36122 -3.7342188 104197
26.680813 124.35591 -4.3179736 104198
26.660694 124.27322 -4.8998647 104199
26.652489 124.25896 -5.48313 104200
26.645214 124.25005 -6.0665894 104201
26.629299 124.19141 -6.6482325 104202
26.623894 124.19324 -7.23211 104203
26.613945 124.16896 -7.8149843 104204
26.607662 124.16577 -8.3989487 104205
26.594112 124.1207 -8.9808044 104206
26.585583 124.10465 -9.5642738 104207
26.583458 124.12541 -10.150272 104208
26.579525 124.13576 -10.736053 104209
26.569675 124.11211 -11.31977 104210
25.682705 124.41072 -1.8813303 104829
25.650635 124.25157 -2.4635365 104830
25.637161 124.20433 -3.0455339 104831
25.646214 124.29271 -3.6291914 104832
25.633224 124.24837 -4.2111235 104833
25.610657 124.14627 -4.7913737 104834
25.607323 124.16003 -5.3741064 104835
25.595058 124.12003 -5.9553366 104836
25.578465 124.05386 -6.5353975 104837
25.577797 124.08378 -7.1190443 104838
25.574749 124.09932 -7.7024941 104839
25.566708 124.08476 -8.2847891 104840
25.558258 124.06772 -8.8670597 104841
25.551987 124.0639 -9.4502344 104842
25.54269 124.04182 -10.032497 104843
25.525173 123.96999 -10.611488 104844
25.52026 123.97439 -11.19571 104845
24.603043 124.19183 -2.360857 105457
24.594471 124.17262 -2.9421692 105458
24.576786 124.0956 -3.5225368 105459
24.574917 124.11879 -4.1041441 105460
24.562057 124.07229 -4.684444 105461
24.553787 124.05491 -5.2652383 105462
24.538273 123.9916 -5.8445454 105463
24.52486 123.94157 -6.4239259 105464
24.525982 123.98383 -7.0067916 105465
24.521118 123.98802 -7.5885096 105466
24.513981 123.97785 -8.1697721 105467
24.502102 123.93757 -8.7495651 105468
24.49604 123.93423 -9.331418 105469
24.493927 123.95599 -9.915102 105470
24.475281 123.8727 -10.492226 105471
24.463688 123.83424 -11.072152 105472
24.451084 123.78934 -11.651599 105473
23.513245 124.03359 -2.255908 106091
23.509136 124.04247 -2.836067 106092
23.503475 124.04092 -3.4162109 106093
23.493294 124.00919 -3.9958584 106094
23.486874 124.00263 -4.5758691 106095
23.47065 123.93031 -5.15418 106096
23.462894 123.91481 -5.733736 106097
23.451233 123.87308 -6.3123755 106098
23.440979 123.84071 -6.8911905 106099
23.438004 123.85723 -7.4720726 106100
23.429352 123.83567 -8.0514603 106101
23.41914 123.80371 -8.6303444 106102
23.413864 123.80481 -9.2111034 106103
23.409977 123.81525 -9.7927313 106104
23.395706 123.75603 -10.370139 106105
23.395763 123.79301 -10.954151 106106
23.384277 123.75248 -11.53301 106107
22.388184 123.80437 -5.0435634 106724
22.369576 123.71011 -5.6195111 106725
22.379589 123.81922 -6.2017903 106726
22.364742 123.75165 -6.7783213 106727
22.359562 123.75281 -7.3574238 106728
22.346245 123.69608 -7.9339828 106729
22.349258 123.75555 -8.5163336 106730
22.333576 123.68197 -9.0919342 106731
22.330315 123.69685 -9.6725597 106732
22.325588 123.7013 -10.252934 106733
22.315514 123.66766 -10.831007 106734
22.309525 123.66315 -11.411289 106735
21.317326 123.70384 -4.9347987 107351
21.305958 123.65749 -5.5111375 107352
21.30159 123.6641 -6.0889888 107353
21.294273 123.64843 -6.6662111 107354
21.287678 123.63817 -7.2437086 107355
21.271847 123.55807 -7.8180513 107356
21.269299 123.57848 -8.3970661 107357
21.265888 123.5924 -8.9761534 107358
21.253262 123.53651 -9.5514374 107359
21.247623 123.53355 -10.129942 107360
21.240082 123.5162 -10.707739 107361
21.23325 123.50427 -11.286126 107362
20.247429 123.56571 -4.8260827 107983
20.243469 123.5753 -5.4028296 107984
20.232327 123.52682 -5.9778967 107985
20.225304 123.5116 -6.5539303 107986
20.216976 123.48591 -7.1295762 107987
20.213753 123.50137 -7.707088 107988
20.210201 123.51432 -8.2848349 107989
20.200466 123.47719 -8.8602009 107990
20.191891 123.44946 -9.436058 107991
20.181538 123.40734 -10.01105 107992
20.174789 123.39443 -10.587968 107993
20.166748 123.37109 -11.164355 107994
19.18124 123.44212 -4.7182918 108611
19.172779 123.41243 -5.2928414 108612
19.169067 123.42394 -5.868576 108613
19.16003 123.38928 -6.4428892 108614
19.149788 123.34418 -7.0166512 108615
19.143379 123.33233 -7.591713 108616
19.141724 123.36163 -8.1689262 108617
19.135193 123.34876 -8.7443695 108618
19.121059 123.2699 -9.3161116 108619
19.120819 123.31152 -9.8950071 108620
19.108395 123.24753 -10.467484 108621
19.101177 123.22861 -11.042951 108622
18.112377 123.27341 -4.6100945 109242
18.106445 123.26401 -5.1839485 109243
18.095982 123.21239 -5.7565289 109244
18.092499 123.22583 -6.3311157 109245
18.08577 123.20896 -6.9047828 109246
18.086418 123.26114 -7.4815545 109247
18.074051 123.19161 -8.0530777 109248
18.064388 123.14743 -8.6255722 109249
18.06126 123.16429 -9.2014465 109250
18.049801 123.10321 -9.7729292 109251
18.047825 123.13093 -10.350061 109252
18.043034 123.13232 -10.925905 109253
17.051311 123.09068 -4.5028982 109872
17.048756 123.11355 -5.0763073 109873
17.040455 123.0782 -5.6482787 109874
17.037796 123.10011 -6.2220659 109875
17.034882 123.11946 -6.7961173 109876
17.024277 123.06078 -7.3671441 109877
17.012245 122.98768 -7.9371705 109878
17.015644 123.07114 -8.514967 109879
17.006268 123.02489 -9.0864096 109880
17.000168 123.0119 -9.6597519 109881
16.991467 122.9726 -10.23156 109882
16.984875 122.95465 -10.804833 109883
16.113804 123.09356 -1.5964416 110497
16.106506 123.06532 -2.1684582 110498
16.097164 123.01471 -2.7400646 110499
16.089783 122.98549 -3.311527 110500
16.086891 123.00556 -3.8836131 110501
16.080147 122.98332 -4.4550614 110502
16.068462 122.90684 -5.025034 110503
16.068157 122.95529 -5.5981898 110504
16.066528 122.98931 -6.171422 110505
16.055256 122.91733 -6.7410245 110506
16.053543 122.95033 -7.3147006 110507
16.045074 122.90924 -7.8853593 110508
16.042892 122.93726 -8.4594727 110509
16.033619 122.88719 -9.0296974 110510
16.025928 122.85454 -9.6008158 110511
16.018368 122.82338 -10.172038 110512
16.012028 122.80565 -10.744242 110513
15.188564 122.96041 -1.581532 111127
15.182899 122.94814 -2.1526465 111128
15.179699 122.96526 -2.7238982 111129
15.169609 122.9002 -3.2943342 111130
15.165661 122.90836 -3.8654671 111131
15.159832 122.89414 -4.4362864 111132
15.150806 122.84156 -5.0061073 111133
15.143566 122.81041 -5.5762296 111134
15.136452 122.78078 -6.1462708 111135
15.131458 122.77654 -6.7171965 111136
15.13026 122.81763 -7.2902174 111137
15.124523 122.80441 -7.8612418 111138
15.116577 122.76486 -8.4310188 111139
15.108425 122.72282 -9.0005674 111140
15.107044 122.76187 -9.5749178 111141
15.096489 122.69098 -10.142784 111142
15.09137 122.68527 -10.714858 111143
14.264778 122.84236 -0.99635571 111758
14.259789 122.83659 -1.5666631 111759
14.251865 122.79245 -2.136786 111760
14.248024 122.80164 -2.7069473 111761
14.242466 122.78842 -3.2769527 111762
14.233067 122.72487 -3.8460674 111763
14.226227 122.69473 -4.4154067 111764
14.222538 122.70596 -4.9856195 111765
14.213184 122.64297 -5.5538607 111766
14.209122 122.64925 -6.1240444 111767
14.203651 122.63712 -6.6937413 111768
14.198601 122.63046 -7.2637553 111769
14.192139 122.6054 -7.8330526 111770
14.189133 122.62566 -8.4046898 111771
14.184422 122.6235 -8.9755068 111772
14.17527 122.56312 -9.5430737 111773
14.16745 122.52016 -10.111533 111774
14.165192 122.55035 -10.684984 111775
13.346642 122.65443 -0.98307288 112390
13.342056 122.65268 -1.5522422 112391
13.334274 122.60453 -2.1212406 112392
13.331837 122.63373 -2.6904175 112393
13.325638 122.6086 -3.2592347 112394
13.315964 122.53307 -3.8270659 112395
13.312733 122.55085 -4.396244 112396
13.304382 122.49434 -4.9638166 112397
13.299435 122.48721 -5.5324697 112398
13.294308 122.47762 -6.1011205 112399
13.290668 122.48946 -6.6706672 112400
13.283836 122.45499 -7.2385383 112401
13.279301 122.45389 -7.8078785 112402
13.272945 122.42642 -8.3760853 112403
13.269165 122.4363 -8.9463873 112404
13.26247 122.40387 -9.5145054 112405
13.255608 122.36895 -10.082471 112406
12.400539 122.41444 -3.8094394 113027
12.39579 122.40833 -4.3773222 113028
12.387939 122.35184 -4.9439974 113029
12.379936 122.29292 -5.5102239 113030
12.375229 122.28735 -6.077878 113031
12.369381 122.26338 -6.6449442 113032
12.366333 122.28478 -7.2139125 113033
12.359936 122.25188 -7.780735 113034
12.357059 122.27631 -8.3504286 113035
12.34914 122.21853 -8.9160213 113036
12.347424 122.26191 -9.4874468 113037
12.338951 122.19521 -10.052466 113038
11.481842 122.21689 -3.7908146 113656
11.476791 122.20286 -4.3574176 113657
11.469231 122.14243 -4.9228482 113658
11.465221 122.14738 -5.4897799 113659
11.461292 122.15388 -6.0569434 113660
11.456577 122.14593 -6.6237845 113661
11.450863 122.11952 -7.1899567 113662
11.446957 122.12659 -7.7576675 113663
11.440331 122.08328 -8.3231001 113664
11.437233 122.10532 -8.892024 113665
11.432701 122.10097 -9.4598303 113666
11.426105 122.05824 -10.025433 113667
10.573135 122.01561 -3.2067649 114286
10.568958 122.01607 -3.7724829 114287
10.566921 122.06198 -4.3392038 114288
10.560078 122.00558 -4.9039068 114289
10.55687 122.02659 -5.4704766 114290
10.551674 122.00519 -6.0359583 114291
10.548599 122.02923 -6.6031303 114292
10.541862 121.97495 -7.1673999 114293
10.536877 121.95814 -7.7331433 114294
10.530464 121.91091 -8.2974205 114295
10.526741 121.92107 -8.8647003 114296
10.521595 121.90085 -9.4305344 114297
10.517262 121.89808 -9.9975958 114298
9.6673088 121.90756 -3.1908624 114910
9.6633835 121.91205 -3.7559834 114911
9.6584053 121.89011 -4.320684 114912
9.6525383 121.84569 -4.8847432 114913
9.6484756 121.84682 -5.4498453 114914
9.6444664 121.84944 -6.0151505 114915
9.6384735 121.80167 -6.5787482 114916
9.634903 121.81533 -7.1446881 114917
9.631546 121.83453 -7.7112093 114918
9.6271439 121.82726 -8.2767859 114919
9.6220131 121.80157 -8.8415327 114920
9.6189957 121.8293 -9.4094963 114921
9.6124153 121.76677 -9.9722347 114922
8.7573776 121.73446 -3.2666559 115533
8.7518044 121.68665 -3.8300602 115534
8.7490845 121.72833 -4.3949723 115535
8.7442436 121.70359 -4.9586873 115536
8.7409821 121.72836 -5.523767 115537
8.7357254 121.69071 -6.0870929 115538
8.7314186 121.68256 -6.6513844 115539
8.7274094 121.68393 -7.2161975 115540
8.7224312 121.65489 -7.7798004 115541
8.7186394 121.66332 -8.3453035 115542
8.7129936 121.61339 -8.9078817 115543
8.7100563 121.6488 -9.47542 115544
6.2213974 121.5703 -3.6002905 116154
6.2169876 121.52505 -4.1628528 116155
6.2129898 121.52138 -4.7260633 116156
6.2090149 121.51921 -5.2894015 116157
6.2050476 121.5186 -5.8529024 116158
6.2009773 121.50754 -6.416172 116159
6.1969261 121.49799 -6.979589 116160
6.1929245 121.494 -7.5433693 116161
6.1885834 121.45558 -8.1056385 116162
6.1848068 121.4746 -8.6708927 116163
6.1807289 121.46323 -9.2348156 116164
6.1762009 121.40545 -9.7960291 116165
5.9597015 121.54268 -0.8214308 116773
5.9558067 121.54959 -1.384562 116774
5.9516144 121.51801 -1.947685 116775
5.9476509 121.51601 -2.5107114 116776
5.9435463 121.49554 -3.0735576 116777
5.9385681 121.36061 -3.634613 116778
5.9341583 121.29924 -4.1959491 116779
5.9305229 121.33941 -4.7592106 116780
5.9265289 121.33313 -5.3216481 116781
5.9224281 121.31238 -5.8837056 116782
5.918457 121.30919 -6.4463778 116783
5.9143181 121.28355 -7.0082841 116784
5.9105759 121.3114 -7.5725818 116785
5.9059639 121.2209 -8.1314869 116786
5.902565 121.29576 -8.6987467 116787
5.8980026 121.21237 -9.2577143 116788
5.8941803 121.23036 -9.8225842 116789
5.8719368 121.30227 -0.83458537 117397
5.8680458 121.30911 -1.3966703 117398
5.864109 121.3095 -1.9587944 117399
5.8601303 121.30345 -2.5208852 117400
5.8557777 121.24293 -3.0823994 117401
5.8515663 121.20398 -3.6437459 117402
5.8478699 121.23854 -4.2062211 117403
5.8438492 121.22667 -4.7680073 117404
5.8396492 121.18835 -5.3290687 117405
5.835434 121.14761 -5.8898597 117406
5.8314743 121.14438 -6.4518123 117407
5.8276024 121.15469 -7.0144701 117408
5.823288 121.0986 -7.5744205 117409
5.8194351 121.112 -8.1375427 117410
5.8156166 121.13089 -8.7013235 117411
5.8114967 121.10339 -9.2628298 117412
5.8071404 121.04152 -9.8222265 117413
5.1440964 121.17474 -0.37097755 118023
5.1401863 121.18362 -0.93252724 118024
5.136261 121.17404 -1.4941601 118025
5.132309 121.11402 -2.0555897 118026
5.1284027 121.11954 -2.6169381 118027
5.1244507 121.07065 -3.1777749 118028
5.1205444 121.07927 -3.7391143 118029
5.1166 121.01748 -4.2992172 118030
5.1126785 121.01321 -4.8602653 118031
5.1087646 121.01851 -5.4216614 118032
5.104847 121.00534 -5.9826403 118033
5.1009331 121.00172 -6.5440164 118034
5.0970039 120.97967 -7.1047792 118035
5.0930939 120.99914 -7.6674595 118036
5.0891647 120.96819 -8.2279987 118037
5.0852356 120.93479 -8.7883806 118038
5.0813065 120.89893 -9.3485947 118039
5.0773888 120.93651 -9.9134378 118040
4.2491989 120.95988 -0.49212232 118654
4.2451897 120.97626 -1.05276 118655
4.2413445 120.97018 -1.613548 118656
4.2379951 120.89368 -2.1740541 118657
4.2336388 120.95869 -2.7349641 118658
4.2304802 120.85731 -3.2945163 118659
4.2263565 120.88943 -3.8553944 118660
4.2226028 120.87113 -4.4156022 118661
4.2191544 120.81041 -4.9746928 118662
4.2150536 120.8392 -5.5359931 118663
4.2113457 120.81358 -6.0958586 118664
4.2076378 120.7895 -6.6557231 118665
4.2036667 120.79897 -7.2169871 118666
4.1997528 120.80196 -7.7782369 118667
4.1959991 120.78253 -8.3385935 118668
4.1921806 120.77264 -8.8995638 118669
4.1886101 120.72836 -9.458662 118670
4.1848259 120.71356 -10.019557 118671
3.3312683 120.71184 -3.4128773 119279
3.328434 120.64348 -3.9715636 119280
3.3242378 120.6647 -4.5316501 119281
3.3203239 120.66745 -5.0915475 119282
3.3176041 120.59183 -5.6492362 119283
3.3137665 120.58969 -6.20895 119284
3.3097801 120.59713 -6.7691817 119285
3.3054657 120.62608 -7.3305984 119286
3.3025856 120.5607 -7.8879919 119287
3.2979813 120.6087 -8.4509392 119288
3.2948761 120.5584 -9.0090256 119289
3.2911911 120.54562 -9.5692196 119290
2.4352341 120.50237 -3.5303228 119905
2.4327812 120.44154 -4.0883265 119906
2.4281731 120.47425 -4.6479592 119907
2.4246368 120.46053 -5.206758 119908
2.4211502 120.44438 -5.7654901 119909
2.4169807 120.45777 -6.3252783 119910
2.4137955 120.42875 -6.883666 119911
2.4104805 120.40527 -7.4422483 119912
2.4067612 120.39934 -8.0016842 119913
2.4031906 120.38696 -8.5609684 119914
2.4000397 120.35619 -9.1193504 119915
2.3965759 120.33894 -9.6785755 119916
1.4443779 120.37238 -3.1011605 120531
1.4425507 120.30946 -3.6588354 120532
1.4391632 120.29606 -4.2169662 120533
1.4353409 120.29623 -4.7753859 120534
1.4333687 120.23799 -5.3323126 120535
1.4295731 120.23728 -5.8907046 120536
1.4248428 120.26611 -6.4503126 120537
1.4224777 120.22056 -7.0073295 120538
1.4182777 120.2325 -7.5667386 120539
1.4151688 120.21005 -8.1247721 120540
1.4112511 120.21313 -8.6842213 120541
1.4067726 120.2337 -9.2449799 120542
1.4055519 120.15205 -9.7998133 120543
0.38469696 120.13274 -3.2375376 121158
0.38141251 120.12116 -3.795028 121159
0.37839127 120.10316 -4.3523669 121160
0.3743248 120.11072 -4.9102635 121161
0.37150192 120.08785 -5.4674778 121162
0.36682129 120.1105 -6.026135 121163
0.36566544 120.04683 -6.5819263 121164
0.35889053 120.12052 -7.1430764 121165
0.3571167 120.07198 -7.6994357 121166
0.35396957 120.05692 -8.2572937 121167
0.34896469 120.08731 -8.8177586 121168
0.34781265 120.02348 -9.3731766 121169
0.34415054 120.02107 -9.932229 121170
-0.68996811 120.01775 -3.3768668 121777
-0.69266129 119.99756 -3.9338834 121778
-0.69423676 119.95499 -4.4903288 121779
-0.69728851 119.94193 -5.0472622 121780
-0.70161819 119.95442 -5.6049595 121781
-0.70483017 119.9445 -6.1621509 121782
-0.70811462 119.93614 -6.7194815 121783
-0.71268463 119.9533 -7.2780232 121784
-0.71492004 119.92411 -7.8347359 121785
-0.71785355 119.90847 -8.3921194 121786
-0.72144699 119.90632 -8.9503765 121787
-0.72553635 119.91371 -9.5094671 121788
-0.72930145 119.91468 -10.068497 121789
-1.7429314 119.86475 -3.513406 122392
-1.7472572 119.87594 -4.070508 122393
-1.7452888 119.78088 -4.6254568 122394
-1.7516861 119.8271 -5.1834168 122395
-1.756752 119.85092 -5.7412171 122396
-1.7557716 119.77257 -6.2957854 122397
-1.7626839 119.82745 -6.8551073 122398
-1.7635422 119.78016 -7.4106178 122399
-1.7680473 119.79427 -7.9688935 122400
-1.7683792 119.73814 -8.5238352 122401
-1.769989 119.70354 -9.0797625 122402
-1.7740593 119.71034 -9.6382141 122403
-2.791172 119.83391 -0.31156713 123009
-2.7910652 119.77917 -0.86891329 123010
-2.7913322 119.73 -1.4257293 123011
-2.7979622 119.77419 -1.9822176 123012
-2.7965355 119.70019 -2.5384374 123013
-2.8022919 119.73153 -3.0950906 123014
-2.8018913 119.67268 -3.6507728 123015
-2.8048592 119.66325 -4.2069383 123016
-2.8043976 119.60355 -4.7619519 123017
-2.8105927 119.64117 -5.319232 123018
-2.8147049 119.64841 -5.8760109 123019
-2.8170166 119.62933 -6.4320545 123020
-2.8227196 119.65965 -6.9901152 123021
-2.8246994 119.6357 -7.5461993 123022
-2.822422 119.54955 -8.0992184 123023
-2.8254318 119.5407 -8.6558857 123024
-2.8269196 119.5095 -9.2114382 123025
-2.8334312 119.55155 -9.7715816 123026
-3.840889 119.53907 -0.45330834 123635
-3.8482132 119.58743 -1.0089341 123636
-3.8488731 119.54963 -1.5651292 123637
-3.8552055 119.58517 -2.1211584 123638
-3.8551865 119.53854 -2.6769607 123639
-3.8555832 119.49747 -3.2324533 123640
-3.855175 119.44601 -3.7874827 123641
-3.8610764 119.47587 -4.3437443 123642
-3.8646202 119.47539 -4.8996358 123643
-3.8676682 119.46851 -5.4554605 123644
-3.8686752 119.4353 -6.0104971 123645
-3.8710403 119.41959 -6.5660596 123646
-3.877243 119.45329 -7.1237259 123647
-3.8770676 119.40485 -7.6781039 123648
-3.8785629 119.37791 -8.2333727 123649
-3.8832703 119.39236 -8.7909231 123650
-3.8896561 119.42826 -9.3501387 123651
-3.8896637 119.38212 -9.9047356 123652
-4.9106827 119.34063 -3.3703406 124263
-4.9097252 119.2886 -3.9249845 124264
-4.914772 119.30585 -4.4807 124265
-4.9192734 119.31673 -5.0365071 124266
-4.9197617 119.28136 -5.5911655 124267
-4.9234924 119.28342 -6.1469336 124268
-4.9249458 119.25917 -6.7018766 124269
-4.930336 119.28027 -7.2587366 124270
-4.9296379 119.23127 -7.8126831 124271
-4.9335709 119.2356 -8.3691797 124272
-4.937645 119.24146 -8.9260578 124273
-4.9401207 119.229 -9.4821472 124274
-5.9672661 119.16476 -3.508615 124877
-5.9680367 119.13603 -4.0632553 124878
-5.9716377 119.13676 -4.6183791 124879
-5.9746284 119.13108 -5.1734514 124880
-5.9739418 119.08717 -5.7274232 124881
-5.9806709 119.12045 -6.2838774 124882
-5.9787598 119.06377 -6.8372374 124883
-5.9838829 119.08028 -7.3935113 124884
-5.9883957 119.09039 -7.949832 124885
-5.9930573 119.10205 -8.5065651 124886
-5.987915 119.01189 -9.0578375 124887
-5.9947891 119.04652 -9.6162739 124888
-7.0694275 118.97178 -3.105392 125498
-7.074295 118.9846 -3.660275 125499
-7.0751171 118.95922 -4.2146249 125500
-7.0803127 118.97518 -4.769804 125501
-7.0823116 118.9609 -5.3244038 125502
-7.0815277 118.92034 -5.8781729 125503
-7.0931187 118.99666 -6.435997 125504
-7.0947723 118.97911 -6.9908414 125505
-7.0940704 118.93929 -7.5447259 125506
-7.0968933 118.93282 -8.1001301 125507
-7.0923157 118.85642 -8.6519537 125508
-7.1030579 118.92457 -9.2117996 125509
-7.103857 118.89895 -9.7666473 125510
-8.2116165 118.79449 -3.2659659 126122
-8.2224903 118.85825 -3.8214059 126123
-8.2243404 118.84411 -4.3759303 126124
-8.2231464 118.80373 -4.9297862 126125
-8.2230644 118.77289 -5.483686 126126
-8.2282238 118.78729 -6.0389562 126127
-8.2312584 118.78339 -6.5938334 126128
-8.23172 118.75725 -7.1479201 126129
-8.2401924 118.80014 -7.7051916 126130
-8.2396336 118.76521 -8.2591085 126131
-8.2429371 118.76359 -8.8148088 126132
-8.2473507 118.77145 -9.3713284 126133
-8.2459583 118.72931 -9.9250078 126134
-9.3607044 118.67997 -3.4273872 126746
-9.3626137 118.66755 -3.9817061 126747
-9.3677311 118.68053 -4.5365405 126748
-9.3705349 118.6752 -5.0911269 126749
-9.3690414 118.63576 -5.6447639 126750
-9.3737431 118.64548 -6.1999016 126751
-9.3741417 118.62106 -6.7539635 126752
-9.3827419 118.66165 -7.3108196 126753
-9.3835354 118.64036 -7.8652906 126754
-9.3855343 118.62856 -8.4202986 126755
-9.3867226 118.6104 -8.9751005 126756
-9.3856068 118.57397 -9.5289078 126757
-9.3961926 118.63019 -10.088742 126758
-10.500153 118.62189 -0.81581461 127369
-10.500776 118.60094 -1.3706735 127370
-10.507008 118.62122 -1.9253565 127371
-10.506983 118.5955 -2.4799988 127372
-10.50555 118.55946 -3.0343421 127373
-10.506481 118.54082 -3.5886588 127374
-10.506556 118.51585 -4.1427646 127375
-10.507376 118.49638 -4.6968656 127376
-10.513266 118.51417 -5.2519097 127377
-10.513975 118.49388 -5.8060522 127378
-10.518139 118.49892 -6.3610764 127379
-10.520893 118.49365 -6.915904 127380
-10.519003 118.45429 -7.4693661 127381
-10.516787 118.41254 -8.0225821 127382
-10.523958 118.43965 -8.57934 127383
-10.527029 118.43664 -9.1348619 127384
-10.527613 118.4154 -9.6895037 127385
-11.641058 118.46085 -0.42254931 127998
-11.644619 118.46143 -0.97731417 127999
-11.638575 118.3963 -1.5322288 128000
-11.651842 118.46334 -2.0867891 128001
-11.656088 118.46861 -2.6415753 128002
-11.66404 118.4992 -3.1967092 128003
-11.649635 118.37699 -3.7498815 128004
-11.654568 118.38696 -4.304615 128005
-11.653358 118.35497 -4.858532 128006
-11.652384 118.32453 -5.4123292 128007
-11.660315 118.355 -5.9679818 128008
-11.666739 118.37514 -6.5236888 128009
-11.665871 118.34546 -7.077682 128010
-11.664646 118.31335 -7.6315098 128011
-11.66423 118.28678 -8.1855555 128012
-11.666359 118.27757 -8.7405605 128013
-11.66872 118.26991 -9.2958469 128014
-11.669569 118.25195 -9.8506947 128015
-12.791357 118.22029 -3.3570168 128620
-12.802843 118.27145 -3.9123735 128621
-12.801592 118.24118 -4.466579 128622
-12.797489 118.19273 -5.0201683 128623
-12.801056 118.19325 -5.5748916 128624
-12.804245 118.19136 -6.1296892 128625
-12.816956 118.25027 -6.6869669 128626
-12.811352 118.19226 -7.2399554 128627
-12.809713 118.15952 -7.793829 128628
-12.821299 118.2112 -8.3520041 128629
-12.816437 118.15788 -8.9050016 128630
-12.816139 118.13373 -9.4595633 128631
-12.821041 118.1427 -10.016357 128632
-13.937586 118.0752 -3.5187697 129243
-13.947512 118.11373 -4.0741391 129244
-13.953093 118.1262 -4.6293645 129245
-13.946434 118.06529 -5.1828747 129246
-13.956486 118.10454 -5.7390604 129247
-13.952316 118.05857 -6.2927485 129248
-13.957617 118.06935 -6.8484488 129249
-13.964504 118.08958 -7.4048557 129250
-13.95388 118.00494 -7.9565706 129251
-13.963251 118.04007 -8.5141163 129252
-13.964985 118.02946 -9.069603 129253
-13.958431 117.9692 -9.6222095 129254
-13.967264 118.00106 -10.180682 129255
-15.092237 117.99273 -3.6811633 129861
-15.09687 117.99899 -4.2364755 129862
-15.10248 118.01074 -4.7920642 129863
-15.097904 117.96496 -5.3462868 129864
-15.101273 117.96407 -5.9016776 129865
-15.099337 117.93322 -6.4561291 129866
-15.106741 117.95508 -7.0126381 129867
-15.102568 117.9116 -7.5665846 129868
-15.113306 117.95229 -8.1245508 129869
-15.112474 117.92764 -8.6795816 129870
-15.11261 117.90845 -9.2349777 129871
-15.108141 117.8633 -9.7888536 129872
-16.438257 117.76907 -3.2933807 130479
-16.460371 117.86736 -3.8500967 130480
-16.467173 117.88465 -4.406146 130481
-16.464607 117.85241 -4.9612322 130482
-16.466051 117.84137 -5.516767 130483
-16.470766 117.84758 -6.0729241 130484
-16.469818 117.82391 -6.6281738 130485
-16.468424 117.79787 -7.1832986 130486
-16.471043 117.79301 -7.7393837 130487
-16.476181 117.80145 -8.29634 130488
-16.472689 117.76433 -8.8510866 130489
-16.47172 117.74052 -9.4065714 130490
-16.476988 117.74963 -9.9642639 130491
-18.048443 117.81229 -0.68758214 131098
-18.046276 117.78427 -1.2442718 131099
-18.042818 117.74994 -1.8006989 131100
-18.046846 117.75243 -2.3569555 131101
-18.054361 117.77213 -2.9133961 131102
-18.035126 117.66012 -3.4684067 131103
-18.036905 117.65157 -4.0242424 131104
-18.049351 117.69551 -4.5812135 131105
-18.045382 117.65867 -5.1365948 131106
-18.053677 117.68217 -5.693603 131107
-18.040779 117.60142 -6.2473478 131108
-18.059254 117.67497 -6.806603 131109
-18.054951 117.63648 -7.3618035 131110
-18.059717 117.6426 -7.9190283 131111
-18.055241 117.60327 -8.4741507 131112
-18.060631 117.61245 -9.0319462 131113
-18.059168 117.58792 -9.5880308 131114
-18.059605 117.57275 -10.144812 131115
-19.643301 117.66306 -0.85949755 131718
-19.64229 117.64219 -1.4168149 131719
-19.639902 117.61503 -1.9739373 131720
-19.646341 117.62848 -2.5310228 131721
-19.648024 117.62003 -3.0880525 131722
-19.636444 117.55058 -3.6442094 131723
-19.637939 117.54128 -4.2009268 131724
-19.646563 117.56478 -4.7583985 131725
-19.631731 117.4804 -5.3132553 131726
-19.64443 117.52261 -5.8715115 131727
-19.642157 117.496 -6.4278097 131728
-19.64872 117.50999 -6.9857006 131729
-19.661552 117.55283 -7.5452223 131730
-19.655195 117.50739 -8.1009617 131731
-19.648315 117.45959 -8.6564131 131732
-19.666388 117.52646 -9.21842 131733
-19.653381 117.45049 -9.7722988 131734
-21.245953 117.4436 -3.8211629 132327
-21.235418 117.38291 -4.3778791 132328
-21.230656 117.34715 -4.9347558 132329
-21.244301 117.39082 -5.4937124 132330
-21.25107 117.40483 -6.0522194 132331
-21.243759 117.35806 -6.6087255 132332
-21.243114 117.34007 -7.1662121 132333
-21.255461 117.37811 -7.7263594 132334
-21.251919 117.3476 -8.2835703 132335
-21.242405 117.29135 -8.839325 132336
-21.253098 117.32223 -9.4000807 132337
-21.257824 117.32737 -9.9597502 132338
-22.838999 117.25835 -3.4391632 132943
-22.835703 117.23055 -3.9973156 132944
-22.854752 117.29356 -4.5572209 132945
-22.854107 117.27654 -5.1157541 132946
-22.856712 117.27271 -5.674655 132947
-22.854898 117.25094 -6.2330532 132948
-22.84774 117.20743 -6.7905774 132949
-22.866739 117.27021 -7.3525343 132950
-22.854586 117.20643 -7.9091845 132951
-22.850454 117.17522 -8.4672098 132952
-22.861971 117.20757 -9.028842 132953
-22.85858 117.17937 -9.5873108 132954
-22.851742 117.13717 -10.144901 132955
-24.460831 117.1537 -3.6167376 133563
-24.460011 117.13683 -4.1763039 133564
-24.461599 117.12919 -4.7360144 133565
-24.456528 117.09598 -5.2950811 133566
-24.466965 117.12231 -5.8558636 133567
-24.468727 117.11534 -6.4158368 133568
-24.4739 117.12146 -6.9764576 133569
-24.470396 117.09427 -7.5358377 133570
-24.484409 117.13429 -8.0985212 133571
-24.474634 117.08305 -8.6568718 133572
-24.478348 117.08355 -9.2180548 133573
-24.474392 117.05461 -9.7776718 133574
-24.483931 117.07742 -10.340839 133575
-29.006111 116.71902 -1.2925123 134187
-29.012302 116.72726 -1.8556041 134188
-29.006241 116.69487 -2.4186285 134189
-29.008701 116.69075 -2.9816134 134190
-28.997761 116.64218 -3.5440426 134191
-28.886803 116.26193 -4.1003313 134192
-28.884825 116.24313 -4.6611733 134193
-28.882141 116.222 -5.2219005 134194
-28.887993 116.22915 -5.7834439 134195
-28.885052 116.20716 -6.3441663 134196
-28.898724 116.24023 -6.9070807 134197
-28.893208 116.20972 -7.4676476 134198
-28.890453 116.18834 -8.0286055 134199
-28.897381 116.19904 -8.5913372 134200
-28.883984 116.1424 -9.1504946 134201
-28.886032 116.13692 -9.7126408 134202
-28.888519 116.1329 -10.275146 134203
-29.517681 116.5695 -1.3387173 134808
-29.513302 116.54311 -1.9018116 134809
-29.505854 116.50673 -2.4646327 134810
-29.505878 116.49474 -3.0273604 134811
-29.513393 116.50722 -3.5903504 134812
-29.499098 116.44849 -4.1522651 134813
-29.493454 116.41801 -4.7143636 134814
-29.49295 116.4043 -5.2767501 134815
-29.504623 116.43032 -5.8403969 134816
-29.502682 116.41192 -6.4028378 134817
-29.508217 116.41792 -6.9662828 134818
-29.509527 116.41012 -7.529357 134819
-29.506598 116.38849 -8.0918961 134820
-29.511147 116.39125 -8.6558037 134821
-29.49975 116.34201 -9.2169428 134822
-29.50403 116.34388 -9.7811556 134823
-29.501732 116.3243 -10.344238 134824
-33.004665 116.17226 -3.8971443 136055
-33.011292 116.18089 -4.4633574 136056
-33.006882 116.15685 -5.0289412 136057
-33.004238 116.13808 -5.5945859 136058
-33.009773 116.14346 -6.1610341 136059
-33.002991 116.11243 -6.7262902 136060
-33.017189 116.14342 -7.2941451 136061
-32.99218 116.05848 -7.8569283 136062
-33.02655 116.14912 -8.4284115 136063
-33.008926 116.08602 -8.9921789 136064
-33.018665 116.10383 -9.5606546 136065
-33.014812 116.08144 -10.126921 136066
